5.44141 5.45703 5.47266 5.48828 5.50781 5.52344 5.53906 5.55469 5.57422 5.58984 72.375 72.3125 72.1875 72.0625 72 71.875 71.75 71.6875 71.5625 71.4375 71.375 71.25 71.125 71.0625 70.9375 70.8125 70.75 70.625 70.5 70.4375 70.3125 70.25 70.125 70 69.9375 69.8125 69.75 69.625 69.5 69.4375 69.3125 69.25 69.125 69.0625 68.9375 68.8125 68.75 68.625 68.5625 68.4375 68.375 68.25 68.1875 68.0625 68 67.875 67.8125 67.6875 67.625 67.5 67.4375 67.3125 67.25 67.1875 67.0625 67 66.875 66.8125 3.30469 3.2832 3.26367 3.25977 3.25586 3.25391 3.25 3.24609 3.24219 3.24023 3.23633 3.23242 3.22852 3.22656 3.22266 3.21875 3.2168 3.21289 3.20898 3.20703 3.20313 3.19922 3.19727 3.19336 3.18945 3.1875 3.18359 3.18164 3.17773 3.17578 3.17188 3.16797 3.16602 3.16211 3.16016 3.15625 3.1543 3.15039 3.14844 3.14453 3.14258 3.14063 3.13672 3.13477 3.13086 3.12891 3.125 3.12305 3.12109 3.11719 3.11523 3.11328 3.10938 3.10742 3.10547 3.10156 3.09961 3.09766 3.09375 3.0918 3.08984 3.08789 3.08398 3.08203 3.08008 3.07813 3.07617 3.07227 3.07031 3.06836 3.06641 3.06445 3.0625 3.06055 3.05664 3.05469 3.05273 3.05078 3.04883 3.04688 3.04492 3.04297 3.04102 3.03906 3.03711 3.03516 3.0332 3.03125 3.0293 3.02734 3.02539 3.02344 3.02148 3.02148 3.01953 3.01758 3.01563 3.01367 3.01172 3.00977 3.00977 3.00781 3.00586 3.00391 3.00391 3.00195 3 2.99805 2.99805 2.99609 2.99414 2.99414 2.99219 2.99023 2.99023 2.98828 2.98633 2.98633 2.98438 2.98438 2.98242 2.98047 2.98047 2.97852 2.97852 2.97656 2.97656 2.97461 2.97461 2.97461 2.97266 2.97266 2.9707 2.9707 2.9707 2.96875 2.96875 2.96875 2.9668 2.9668 2.9668 2.96484 2.96484 2.96484 2.96484 2.96289 2.96289 2.96289 2.96289 2.96094 2.96094 2.96094 2.96094 2.96094 2.96094 2.96094 2.96094 2.96094 2.95898 2.95898 2.95898 2.95898 2.95898 2.95898 2.95898 2.95898 2.96094 2.96094 2.96094 2.96094 2.96094 2.96094 2.96094 2.96094 2.96094 2.96289 2.96289 2.96289 2.96289 2.96484 2.96484 2.96484 2.96484 2.9668 2.9668 2.9668 2.96875 2.96875 2.96875 2.9707 2.9707 2.97266 2.97266 2.97266 2.97461 2.97461 2.97656 2.97656 2.97852 2.97852 2.98047 2.98047 2.98242 2.98438 2.98438 2.98633 2.98633 2.98828 2.99023 2.99023 2.99219 2.99414 2.99414 2.99609 2.99805 3 3 3.00195 3.00391 3.00586 3.00781 3.00781 3.00977 3.01172 3.01367 3.01563 3.01758 3.01953 3.02148 3.02344 3.02539 3.02734 3.0293 3.03125 3.0332 3.03516 3.03711 3.03906 3.04102 3.04297 3.04492 3.04688 3.04883 3.05273 3.05469 3.05664 3.05859 3.06055 3.06445 3.06641 3.06836 3.07031 3.07422 3.07617 3.07813 3.08008 3.08398 3.08594 3.08984 3.0918 3.09375 3.09766 3.09961 3.10352 3.10547 3.10938 3.11133 3.11328 3.11719 3.12109 3.12305 3.12695 3.12891 3.13281 3.13477 3.13867 3.14258 3.14453 3.14844 3.15039 3.1543 3.1582 3.16211 3.16406 3.16797 3.17188 3.17383 3.17773 3.18164 3.18555 3.18945 3.19141 3.19531 3.19922 3.20313 3.20703 3.21094 3.21484 3.21875 3.2207 3.22461 3.23828 3.26172 61.0938 61.1563 61.2188 61.2813 61.3438 61.4063 61.4688 61.5 61.5625 61.625 61.6875 61.75 61.8125 61.875 61.9375 62 62.0625 62.125 62.1875 62.2813 62.3438 62.4063 62.4688 62.5313 62.5938 62.6563
5.4375 5.45313 5.47266 5.48828 5.50391 5.51953 5.53516 5.55078 5.57031 5.58594 71.1875 71.0625 71 70.875 70.75 70.6875 70.5625 70.4375 70.375 70.25 70.125 70.0625 69.9375 69.8125 69.75 69.625 69.5625 69.4375 69.3125 69.25 69.125 69.0625 68.9375 68.8125 68.75 68.625 68.5625 68.4375 68.375 68.25 68.1875 68.0625 67.9375 67.875 67.75 67.6875 67.5625 67.5 67.375 67.3125 67.1875 67.125 67 66.9375 66.8125 66.75 66.6875 66.5625 66.5 66.375 66.3125 66.1875 66.125 66 65.9375 65.875 65.75 65.6875 3.31055 3.28906 3.26758 3.26172 3.25781 3.25586 3.25195 3.24805 3.24414 3.24219 3.23828 3.23438 3.23047 3.22852 3.22461 3.2207 3.21875 3.21484 3.21094 3.20898 3.20508 3.20117 3.19922 3.19531 3.19141 3.18945 3.18555 3.18359 3.17969 3.17773 3.17383 3.16992 3.16797 3.16406 3.16211 3.1582 3.15625 3.15234 3.15039 3.14648 3.14453 3.14258 3.13867 3.13672 3.13281 3.13086 3.12695 3.125 3.12305 3.11914 3.11719 3.11523 3.11133 3.10938 3.10742 3.10352 3.10156 3.09961 3.0957 3.09375 3.0918 3.08984 3.08594 3.08398 3.08203 3.08008 3.07617 3.07422 3.07227 3.07031 3.06836 3.06641 3.06445 3.06055 3.05859 3.05664 3.05469 3.05273 3.05078 3.04883 3.04688 3.04492 3.04297 3.04102 3.03906 3.03711 3.03516 3.0332 3.03125 3.0293 3.02734 3.02539 3.02344 3.02148 3.01953 3.01953 3.01758 3.01563 3.01367 3.01172 3.00977 3.00977 3.00781 3.00586 3.00391 3.00391 3.00195 3 2.99805 2.99805 2.99609 2.99414 2.99414 2.99219 2.99023 2.99023 2.98828 2.98828 2.98633 2.98438 2.98438 2.98242 2.98242 2.98047 2.98047 2.97852 2.97852 2.97656 2.97656 2.97461 2.97461 2.97461 2.97266 2.97266 2.9707 2.9707 2.9707 2.96875 2.96875 2.96875 2.9668 2.9668 2.9668 2.9668 2.96484 2.96484 2.96484 2.96484 2.96289 2.96289 2.96289 2.96289 2.96289 2.96289 2.96289 2.96094 2.96094 2.96094 2.96094 2.96094 2.96094 2.96094 2.96094 2.96094 2.96094 2.96094 2.96094 2.96094 2.96094 2.96289 2.96289 2.96289 2.96289 2.96289 2.96289 2.96289 2.96484 2.96484 2.96484 2.96484 2.9668 2.9668 2.9668 2.9668 2.96875 2.96875 2.96875 2.9707 2.9707 2.9707 2.97266 2.97266 2.97461 2.97461 2.97656 2.97656 2.97852 2.97852 2.98047 2.98047 2.98242 2.98242 2.98438 2.98438 2.98633 2.98828 2.98828 2.99023 2.99023 2.99219 2.99414 2.99414 2.99609 2.99805 3 3 3.00195 3.00391 3.00586 3.00781 3.00781 3.00977 3.01172 3.01367 3.01563 3.01758 3.01953 3.02148 3.02344 3.02344 3.02539 3.02734 3.0293 3.03125 3.0332 3.03711 3.03906 3.04102 3.04297 3.04492 3.04688 3.04883 3.05078 3.05273 3.05664 3.05859 3.06055 3.0625 3.06445 3.06836 3.07031 3.07227 3.07422 3.07813 3.08008 3.08203 3.08594 3.08789 3.08984 3.09375 3.0957 3.09961 3.10156 3.10352 3.10742 3.10938 3.11328 3.11523 3.11914 3.12109 3.125 3.12891 3.13086 3.13477 3.13672 3.14063 3.14258 3.14648 3.15039 3.15234 3.15625 3.16016 3.16211 3.16602 3.16992 3.17383 3.17578 3.17969 3.18359 3.1875 3.19141 3.19336 3.19727 3.20117 3.20508 3.20898 3.21289 3.2168 3.2207 3.22266 3.22656 3.24414 3.26563 60.0625 60.125 60.1875 60.25 60.3125 60.3438 60.4063 60.4688 60.5313 60.5938 60.6563 60.7188 60.7813 60.8438 60.9063 60.9688 61.0313 61.0938 61.1563 61.2188 61.2813 61.3438 61.4063 61.4688 61.5313 61.625
5.4375 5.45313 5.46875 5.48438 5.5 5.51563 5.53125 5.55078 5.56641 5.58203 5.60156 69.875 69.8125 69.6875 69.625 69.5 69.375 69.3125 69.1875 69.0625 69 68.875 68.8125 68.6875 68.5625 68.5 68.375 68.3125 68.1875 68.0625 68 67.875 67.8125 67.6875 67.625 67.5 67.4375 67.3125 67.1875 67.125 67 66.9375 66.8125 66.75 66.625 66.5625 66.4375 66.375 66.25 66.1875 66.125 66 65.9375 65.8125 65.75 65.625 65.5625 65.4375 65.375 65.3125 65.1875 65.125 65 64.9375 64.8125 64.75 64.6875 64.5625 3.31836 3.29492 3.27539 3.26367 3.25977 3.25781 3.25391 3.25 3.24609 3.24414 3.24023 3.23633 3.23242 3.23047 3.22656 3.22266 3.2207 3.2168 3.21289 3.21094 3.20703 3.20313 3.20117 3.19727 3.19336 3.19141 3.1875 3.18555 3.18164 3.17969 3.17578 3.17188 3.16992 3.16602 3.16406 3.16016 3.1582 3.1543 3.15234 3.14844 3.14648 3.14258 3.14063 3.13867 3.13477 3.13281 3.12891 3.12695 3.125 3.12109 3.11914 3.11523 3.11328 3.11133 3.10742 3.10547 3.10352 3.10156 3.09766 3.0957 3.09375 3.08984 3.08789 3.08594 3.08398 3.08203 3.07813 3.07617 3.07422 3.07227 3.07031 3.06836 3.06445 3.0625 3.06055 3.05859 3.05664 3.05469 3.05273 3.05078 3.04883 3.04688 3.04492 3.04297 3.04102 3.03906 3.03711 3.03516 3.0332 3.03125 3.0293 3.02734 3.02539 3.02344 3.02148 3.01953 3.01953 3.01758 3.01563 3.01367 3.01172 3.00977 3.00977 3.00781 3.00586 3.00391 3.00391 3.00195 3 3 2.99805 2.99609 2.99609 2.99414 2.99219 2.99219 2.99023 2.98828 2.98828 2.98633 2.98633 2.98438 2.98438 2.98242 2.98242 2.98047 2.98047 2.97852 2.97852 2.97656 2.97656 2.97461 2.97461 2.97461 2.97266 2.97266 2.9707 2.9707 2.9707 2.96875 2.96875 2.96875 2.96875 2.9668 2.9668 2.9668 2.9668 2.96484 2.96484 2.96484 2.96484 2.96484 2.96484 2.96289 2.96289 2.96289 2.96289 2.96289 2.96289 2.96289 2.96289 2.96289 2.96289 2.96289 2.96289 2.96289 2.96289 2.96289 2.96289 2.96289 2.96289 2.96484 2.96484 2.96484 2.96484 2.96484 2.96484 2.9668 2.9668 2.9668 2.9668 2.96875 2.96875 2.96875 2.9707 2.9707 2.9707 2.97266 2.97266 2.97266 2.97461 2.97461 2.97656 2.97656 2.97656 2.97852 2.97852 2.98047 2.98047 2.98242 2.98242 2.98438 2.98633 2.98633 2.98828 2.98828 2.99023 2.99219 2.99219 2.99414 2.99609 2.99609 2.99805 3 3 3.00195 3.00391 3.00586 3.00781 3.00781 3.00977 3.01172 3.01367 3.01563 3.01758 3.01953 3.02148 3.02148 3.02344 3.02539 3.02734 3.0293 3.03125 3.0332 3.03516 3.03711 3.03906 3.04297 3.04492 3.04688 3.04883 3.05078 3.05273 3.05469 3.05664 3.06055 3.0625 3.06445 3.06641 3.07031 3.07227 3.07422 3.07617 3.08008 3.08203 3.08398 3.08789 3.08984 3.0918 3.0957 3.09766 3.10156 3.10352 3.10547 3.10938 3.11133 3.11523 3.11719 3.12109 3.12305 3.12695 3.12891 3.13281 3.13672 3.13867 3.14258 3.14453 3.14844 3.15234 3.1543 3.1582 3.16211 3.16406 3.16797 3.17188 3.17578 3.17773 3.18164 3.18555 3.18945 3.19336 3.19531 3.19922 3.20313 3.20703 3.21094 3.21484 3.21875 3.22266 3.22656 3.22852 3.24805 3.27148 59.0625 59.125 59.1875 59.25 59.3125 59.3438 59.4063 59.4688 59.5313 59.5938 59.6563 59.7188 59.7813 59.8438 59.9063 59.9375 60 60.0625 60.125 60.1875 60.2813 60.3438 60.4063 60.4688 60.5313 60.5938
5.43359 5.44922 5.46484 5.48047 5.49609 5.51172 5.53125 5.54688 5.5625 5.57813 5.59766 68.75 68.6875 68.5625 68.4375 68.375 68.25 68.1875 68.0625 67.9375 67.875 67.75 67.6875 67.5625 67.4375 67.375 67.25 67.1875 67.0625 67 66.875 66.8125 66.6875 66.625 66.5 66.375 66.3125 66.1875 66.125 66 65.9375 65.8125 65.75 65.625 65.5625 65.5 65.375 65.3125 65.1875 65.125 65 64.9375 64.8125 64.75 64.6875 64.5625 64.5 64.375 64.3125 64.1875 64.125 64.0625 63.9688 63.875 63.8125 63.7188 63.625 63.5313 63.4688 3.30273 3.28125 3.26563 3.26172 3.25977 3.25586 3.25195 3.24805 3.24609 3.24219 3.23828 3.23438 3.23242 3.22852 3.22461 3.22266 3.21875 3.21484 3.21289 3.20898 3.20508 3.20313 3.19922 3.19531 3.19336 3.18945 3.1875 3.18359 3.18164 3.17773 3.17383 3.17188 3.16797 3.16602 3.16211 3.16016 3.15625 3.1543 3.15039 3.14844 3.14453 3.14258 3.14063 3.13672 3.13477 3.13086 3.12891 3.12695 3.12305 3.12109 3.11719 3.11523 3.11328 3.10938 3.10742 3.10547 3.10156 3.09961 3.09766 3.0957 3.0918 3.08984 3.08789 3.08594 3.08203 3.08008 3.07813 3.07617 3.07422 3.07227 3.06836 3.06641 3.06445 3.0625 3.06055 3.05859 3.05664 3.05469 3.05273 3.05078 3.04883 3.04688 3.04492 3.04297 3.04102 3.03906 3.03711 3.03516 3.0332 3.03125 3.0293 3.02734 3.02539 3.02344 3.02148 3.01953 3.01953 3.01758 3.01563 3.01367 3.01172 3.01172 3.00977 3.00781 3.00586 3.00586 3.00391 3.00195 3 3 2.99805 2.99609 2.99609 2.99414 2.99219 2.99219 2.99023 2.99023 2.98828 2.98633 2.98633 2.98438 2.98438 2.98242 2.98242 2.98047 2.98047 2.97852 2.97852 2.97852 2.97656 2.97656 2.97461 2.97461 2.97461 2.97266 2.97266 2.97266 2.9707 2.9707 2.9707 2.96875 2.96875 2.96875 2.96875 2.9668 2.9668 2.9668 2.9668 2.9668 2.9668 2.96484 2.96484 2.96484 2.96484 2.96484 2.96484 2.96484 2.96484 2.96484 2.96484 2.96484 2.96484 2.96484 2.96484 2.96484 2.96484 2.96484 2.96484 2.96484 2.96484 2.9668 2.9668 2.9668 2.9668 2.9668 2.9668 2.96875 2.96875 2.96875 2.96875 2.9707 2.9707 2.9707 2.97266 2.97266 2.97266 2.97461 2.97461 2.97461 2.97656 2.97656 2.97852 2.97852 2.98047 2.98047 2.98242 2.98242 2.98438 2.98438 2.98633 2.98633 2.98828 2.99023 2.99023 2.99219 2.99219 2.99414 2.99609 2.99609 2.99805 3 3.00195 3.00195 3.00391 3.00586 3.00781 3.00781 3.00977 3.01172 3.01367 3.01563 3.01758 3.01953 3.01953 3.02148 3.02344 3.02539 3.02734 3.0293 3.03125 3.0332 3.03516 3.03711 3.03906 3.04102 3.04297 3.04492 3.04883 3.05078 3.05273 3.05469 3.05664 3.05859 3.0625 3.06445 3.06641 3.06836 3.07031 3.07422 3.07617 3.07813 3.08203 3.08398 3.08594 3.08984 3.0918 3.09375 3.09766 3.09961 3.10156 3.10547 3.10742 3.11133 3.11328 3.11719 3.11914 3.12305 3.125 3.12891 3.13086 3.13477 3.13867 3.14063 3.14453 3.14648 3.15039 3.1543 3.15625 3.16016 3.16406 3.16602 3.16992 3.17383 3.17773 3.17969 3.18359 3.1875 3.19141 3.19531 3.19727 3.20117 3.20508 3.20898 3.21289 3.2168 3.2207 3.22461 3.22852 3.23242 3.25195 3.27539 58.0938 58.1563 58.2188 58.2813 58.3438 58.375 58.4375 58.5 58.5625 58.625 58.6875 58.7188 58.7813 58.8438 58.9063 58.9688 59.0313 59.0938 59.1563 59.2188 59.2813 59.3438 59.4063 59.4688 59.5313 59.5938
5.42969 5.44531 5.46094 5.47656 5.49219 5.51172 5.52734 5.54297 5.55859 5.57813 5.59375 67.6875 67.5625 67.4375 67.375 67.25 67.1875 67.0625 66.9375 66.875 66.75 66.6875 66.5625 66.5 66.375 66.3125 66.1875 66.125 66 65.875 65.8125 65.6875 65.625 65.5 65.4375 65.3125 65.25 65.125 65.0625 64.9375 64.875 64.8125 64.6875 64.625 64.5 64.4375 64.3125 64.25 64.125 64.0625 64 63.9063 63.8125 63.7188 63.625 63.5313 63.4688 63.375 63.2813 63.1875 63.125 63.0313 62.9375 62.8438 62.7813 62.6875 62.5938 62.5313 62.4375 3.30859 3.28711 3.26758 3.26563 3.26172 3.25781 3.25391 3.25 3.24805 3.24414 3.24023 3.23828 3.23438 3.23047 3.22656 3.22461 3.2207 3.2168 3.21484 3.21094 3.20703 3.20508 3.20117 3.19922 3.19531 3.19141 3.18945 3.18555 3.18359 3.17969 3.17578 3.17383 3.16992 3.16797 3.16406 3.16211 3.1582 3.15625 3.15234 3.15039 3.14648 3.14453 3.14258 3.13867 3.13672 3.13281 3.13086 3.12695 3.125 3.12305 3.11914 3.11719 3.11523 3.11133 3.10938 3.10742 3.10352 3.10156 3.09961 3.09766 3.09375 3.0918 3.08984 3.08789 3.08398 3.08203 3.08008 3.07813 3.07617 3.07422 3.07031 3.06836 3.06641 3.06445 3.0625 3.06055 3.05859 3.05664 3.05469 3.05273 3.04883 3.04688 3.04492 3.04297 3.04102 3.03906 3.03906 3.03711 3.03516 3.0332 3.03125 3.0293 3.02734 3.02539 3.02344 3.02148 3.01953 3.01953 3.01758 3.01563 3.01367 3.01172 3.01172 3.00977 3.00781 3.00586 3.00586 3.00391 3.00195 3.00195 3 2.99805 2.99805 2.99609 2.99414 2.99414 2.99219 2.99023 2.99023 2.98828 2.98828 2.98633 2.98633 2.98438 2.98438 2.98242 2.98242 2.98047 2.98047 2.97852 2.97852 2.97852 2.97656 2.97656 2.97461 2.97461 2.97461 2.97266 2.97266 2.97266 2.9707 2.9707 2.9707 2.9707 2.96875 2.96875 2.96875 2.96875 2.96875 2.9668 2.9668 2.9668 2.9668 2.9668 2.9668 2.9668 2.9668 2.9668 2.9668 2.9668 2.9668 2.9668 2.9668 2.9668 2.9668 2.9668 2.9668 2.9668 2.9668 2.9668 2.9668 2.9668 2.96875 2.96875 2.96875 2.96875 2.96875 2.96875 2.9707 2.9707 2.9707 2.97266 2.97266 2.97266 2.97266 2.97461 2.97461 2.97656 2.97656 2.97656 2.97852 2.97852 2.98047 2.98047 2.98242 2.98242 2.98242 2.98438 2.98633 2.98633 2.98828 2.98828 2.99023 2.99023 2.99219 2.99414 2.99414 2.99609 2.99805 2.99805 3 3.00195 3.00195 3.00391 3.00586 3.00781 3.00781 3.00977 3.01172 3.01367 3.01563 3.01758 3.01953 3.01953 3.02148 3.02344 3.02539 3.02734 3.0293 3.03125 3.0332 3.03516 3.03711 3.03906 3.04102 3.04297 3.04492 3.04688 3.04883 3.05273 3.05469 3.05664 3.05859 3.06055 3.0625 3.06641 3.06836 3.07031 3.07227 3.07617 3.07813 3.08008 3.08203 3.08594 3.08789 3.08984 3.09375 3.0957 3.09961 3.10156 3.10352 3.10742 3.10938 3.11328 3.11523 3.11914 3.12109 3.125 3.12695 3.13086 3.13281 3.13672 3.14063 3.14258 3.14648 3.14844 3.15234 3.15625 3.1582 3.16211 3.16602 3.16797 3.17188 3.17578 3.17969 3.18164 3.18555 3.18945 3.19336 3.19727 3.19922 3.20313 3.20703 3.21094 3.21484 3.21875 3.22266 3.22656 3.23047 3.23438 3.25781 3.28125 57.1875 57.2188 57.2813 57.3438 57.4063 57.4375 57.5 57.5625 57.625 57.6875 57.7188 57.7813 57.8438 57.9063 57.9688 58.0313 58.0938 58.1563 58.2188 58.2813 58.3438 58.4063 58.4688 58.5313 58.5938 58.6563
5.42578 5.44141 5.45703 5.47266 5.49219 5.50781 5.52344 5.53906 5.55469 5.57422 5.58984 5.60938 66.5 66.375 66.3125 66.1875 66.125 66 65.9375 65.8125 65.6875 65.625 65.5 65.4375 65.3125 65.25 65.125 65.0625 64.9375 64.875 64.75 64.6875 64.5625 64.5 64.375 64.3125 64.1875 64.125 64 63.9688 63.875 63.7813 63.6875 63.5938 63.5 63.4063 63.3125 63.25 63.1563 63.0625 62.9688 62.875 62.8125 62.7188 62.625 62.5313 62.4688 62.375 62.2813 62.1875 62.125 62.0313 61.9375 61.875 61.7813 61.6875 61.625 61.5313 61.4375 3.31445 3.29297 3.27148 3.26758 3.26367 3.25977 3.25586 3.25391 3.25 3.24609 3.24219 3.24023 3.23633 3.23242 3.22852 3.22656 3.22266 3.21875 3.2168 3.21289 3.20898 3.20703 3.20313 3.20117 3.19727 3.19336 3.19141 3.1875 3.18555 3.18164 3.17773 3.17578 3.17188 3.16992 3.16602 3.16406 3.16016 3.1582 3.1543 3.15234 3.14844 3.14648 3.14453 3.14063 3.13867 3.13477 3.13281 3.12891 3.12695 3.125 3.12109 3.11914 3.11719 3.11328 3.11133 3.10938 3.10547 3.10352 3.10156 3.09961 3.0957 3.09375 3.0918 3.08984 3.08594 3.08398 3.08203 3.08008 3.07813 3.07422 3.07227 3.07031 3.06836 3.06641 3.06445 3.0625 3.06055 3.05859 3.05469 3.05273 3.05078 3.04883 3.04688 3.04492 3.04297 3.04102 3.03906 3.03711 3.03711 3.03516 3.0332 3.03125 3.0293 3.02734 3.02539 3.02344 3.02148 3.02148 3.01953 3.01758 3.01563 3.01367 3.01367 3.01172 3.00977 3.00781 3.00781 3.00586 3.00391 3.00195 3.00195 3 2.99805 2.99805 2.99609 2.99609 2.99414 2.99219 2.99219 2.99023 2.99023 2.98828 2.98828 2.98633 2.98633 2.98438 2.98438 2.98242 2.98242 2.98047 2.98047 2.97852 2.97852 2.97852 2.97656 2.97656 2.97656 2.97461 2.97461 2.97461 2.97266 2.97266 2.97266 2.97266 2.9707 2.9707 2.9707 2.9707 2.96875 2.96875 2.96875 2.96875 2.96875 2.96875 2.96875 2.96875 2.96875 2.9668 2.9668 2.9668 2.9668 2.9668 2.9668 2.9668 2.9668 2.96875 2.96875 2.96875 2.96875 2.96875 2.96875 2.96875 2.96875 2.9707 2.9707 2.9707 2.9707 2.9707 2.97266 2.97266 2.97266 2.97266 2.97461 2.97461 2.97461 2.97656 2.97656 2.97656 2.97852 2.97852 2.98047 2.98047 2.98047 2.98242 2.98242 2.98438 2.98438 2.98633 2.98633 2.98828 2.98828 2.99023 2.99219 2.99219 2.99414 2.99414 2.99609 2.99805 2.99805 3 3.00195 3.00391 3.00391 3.00586 3.00781 3.00977 3.00977 3.01172 3.01367 3.01563 3.01758 3.01953 3.01953 3.02148 3.02344 3.02539 3.02734 3.0293 3.03125 3.0332 3.03516 3.03711 3.03906 3.04102 3.04297 3.04492 3.04688 3.04883 3.05078 3.05469 3.05664 3.05859 3.06055 3.0625 3.06445 3.06836 3.07031 3.07227 3.07422 3.07813 3.08008 3.08203 3.08398 3.08789 3.08984 3.0918 3.0957 3.09766 3.10156 3.10352 3.10547 3.10938 3.11133 3.11523 3.11719 3.12109 3.12305 3.12695 3.12891 3.13281 3.13477 3.13867 3.14258 3.14453 3.14844 3.15039 3.1543 3.1582 3.16016 3.16406 3.16797 3.16992 3.17383 3.17773 3.18164 3.18359 3.1875 3.19141 3.19531 3.19922 3.20313 3.20508 3.20898 3.21289 3.2168 3.2207 3.22461 3.22852 3.23242 3.24023 3.26172 3.28516 56.2813 56.3125 56.375 56.4375 56.4688 56.5313 56.5938 56.6563 56.7188 56.75 56.8125 56.875 56.9375 57 57.0625 57.0938 57.1563 57.2188 57.2813 57.3438 57.4063 57.4688 57.5313 57.5938 57.6563 57.7188
5.42578 5.44141 5.45703 5.47266 5.48828 5.50391 5.51953 5.53516 5.55469 5.57031 5.58594 5.60547 65.4375 65.375 65.25 65.1875 65.0625 65 64.875 64.8125 64.6875 64.625 64.5 64.4375 64.3125 64.25 64.125 64.0625 63.9688 63.875 63.7813 63.6875 63.5938 63.5 63.4063 63.3125 63.2188 63.125 63.0625 62.9688 62.875 62.7813 62.6875 62.5938 62.5 62.4375 62.3438 62.25 62.1563 62.0938 62 61.9063 61.8125 61.75 61.6563 61.5625 61.4688 61.4063 61.3125 61.2188 61.1563 61.0625 60.9688 60.9063 60.8125 60.7188 60.6563 60.5625 60.5 3.32031 3.29883 3.27734 3.26953 3.26563 3.26172 3.25781 3.25586 3.25195 3.24805 3.24414 3.24219 3.23828 3.23438 3.23242 3.22852 3.22461 3.22266 3.21875 3.21484 3.21289 3.20898 3.20508 3.20313 3.19922 3.19531 3.19336 3.18945 3.1875 3.18359 3.18164 3.17773 3.17383 3.17188 3.16797 3.16602 3.16211 3.16016 3.15625 3.1543 3.15039 3.14844 3.14648 3.14258 3.14063 3.13672 3.13477 3.13086 3.12891 3.12695 3.12305 3.12109 3.11914 3.11523 3.11328 3.11133 3.10742 3.10547 3.10352 3.10156 3.09766 3.0957 3.09375 3.0918 3.08789 3.08594 3.08398 3.08203 3.08008 3.07617 3.07422 3.07227 3.07031 3.06836 3.06641 3.06445 3.0625 3.05859 3.05664 3.05469 3.05273 3.05078 3.04883 3.04688 3.04492 3.04297 3.04102 3.03906 3.03711 3.03516 3.03516 3.0332 3.03125 3.0293 3.02734 3.02539 3.02344 3.02148 3.02148 3.01953 3.01758 3.01563 3.01367 3.01367 3.01172 3.00977 3.00781 3.00781 3.00586 3.00391 3.00391 3.00195 3 3 2.99805 2.99609 2.99609 2.99414 2.99414 2.99219 2.99023 2.99023 2.98828 2.98828 2.98633 2.98633 2.98438 2.98438 2.98438 2.98242 2.98242 2.98047 2.98047 2.97852 2.97852 2.97852 2.97656 2.97656 2.97656 2.97461 2.97461 2.97461 2.97461 2.97266 2.97266 2.97266 2.97266 2.97266 2.9707 2.9707 2.9707 2.9707 2.9707 2.9707 2.9707 2.96875 2.96875 2.96875 2.96875 2.96875 2.96875 2.96875 2.96875 2.96875 2.96875 2.96875 2.96875 2.9707 2.9707 2.9707 2.9707 2.9707 2.9707 2.9707 2.97266 2.97266 2.97266 2.97266 2.97266 2.97461 2.97461 2.97461 2.97656 2.97656 2.97656 2.97852 2.97852 2.97852 2.98047 2.98047 2.98047 2.98242 2.98242 2.98438 2.98438 2.98633 2.98633 2.98828 2.98828 2.99023 2.99023 2.99219 2.99414 2.99414 2.99609 2.99609 2.99805 3 3 3.00195 3.00391 3.00391 3.00586 3.00781 3.00977 3.00977 3.01172 3.01367 3.01563 3.01758 3.01953 3.01953 3.02148 3.02344 3.02539 3.02734 3.0293 3.03125 3.0332 3.03516 3.03711 3.03906 3.04102 3.04297 3.04492 3.04688 3.04883 3.05078 3.05273 3.05469 3.05859 3.06055 3.0625 3.06445 3.06641 3.06836 3.07227 3.07422 3.07617 3.07813 3.08203 3.08398 3.08594 3.08984 3.0918 3.09375 3.09766 3.09961 3.10352 3.10547 3.10742 3.11133 3.11328 3.11719 3.11914 3.12305 3.125 3.12891 3.13086 3.13477 3.13672 3.14063 3.14453 3.14648 3.15039 3.15234 3.15625 3.16016 3.16211 3.16602 3.16992 3.17383 3.17578 3.17969 3.18359 3.1875 3.18945 3.19336 3.19727 3.20117 3.20508 3.20703 3.21094 3.21484 3.21875 3.22266 3.22656 3.23047 3.23438 3.24414 3.26758 55.3438 55.375 55.4375 55.5 55.5313 55.5938 55.6563 55.7188 55.75 55.8125 55.875 55.9375 56 56.0313 56.0938 56.1563 56.2188 56.2813 56.3438 56.4063 56.4375 56.5 56.5625 56.625 56.6875 56.75 56.8125
5.42188 5.4375 5.45313 5.46875 5.48438 5.5 5.51563 5.53516 5.55078 5.56641 5.58594 5.60156 64.4375 64.375 64.25 64.1875 64.0625 64 63.9063 63.8125 63.7188 63.625 63.5313 63.4375 63.3438 63.25 63.1563 63.0625 62.9688 62.875 62.8125 62.7188 62.625 62.5313 62.4375 62.3438 62.25 62.1563 62.0938 62 61.9063 61.8125 61.7188 61.6563 61.5625 61.4688 61.375 61.2813 61.2188 61.125 61.0313 60.9688 60.875 60.7813 60.6875 60.625 60.5313 60.4375 60.375 60.2813 60.2188 60.125 60.0313 59.9688 59.875 59.8125 59.7188 59.625 59.5625 59.4688 3.30469 3.2832 3.27148 3.26758 3.26367 3.26172 3.25781 3.25391 3.25 3.24805 3.24414 3.24023 3.23633 3.23438 3.23047 3.22656 3.22461 3.2207 3.2168 3.21484 3.21094 3.20703 3.20508 3.20117 3.19727 3.19531 3.19141 3.18945 3.18555 3.18359 3.17969 3.17578 3.17383 3.16992 3.16797 3.16406 3.16211 3.1582 3.15625 3.15234 3.15039 3.14844 3.14453 3.14258 3.13867 3.13672 3.13281 3.13086 3.12891 3.125 3.12305 3.12109 3.11719 3.11523 3.11328 3.10938 3.10742 3.10547 3.10352 3.09961 3.09766 3.0957 3.09375 3.08984 3.08789 3.08594 3.08398 3.08203 3.07813 3.07617 3.07422 3.07227 3.07031 3.06836 3.06641 3.06445 3.06055 3.05859 3.05664 3.05469 3.05273 3.05078 3.04883 3.04688 3.04492 3.04297 3.04102 3.03906 3.03711 3.03516 3.03516 3.0332 3.03125 3.0293 3.02734 3.02539 3.02344 3.02344 3.02148 3.01953 3.01758 3.01563 3.01563 3.01367 3.01172 3.00977 3.00977 3.00781 3.00586 3.00391 3.00391 3.00195 3.00195 3 2.99805 2.99805 2.99609 2.99414 2.99414 2.99219 2.99219 2.99023 2.99023 2.98828 2.98828 2.98633 2.98633 2.98438 2.98438 2.98438 2.98242 2.98242 2.98047 2.98047 2.98047 2.97852 2.97852 2.97852 2.97656 2.97656 2.97656 2.97656 2.97461 2.97461 2.97461 2.97461 2.97266 2.97266 2.97266 2.97266 2.97266 2.97266 2.97266 2.9707 2.9707 2.9707 2.9707 2.9707 2.9707 2.9707 2.9707 2.9707 2.9707 2.9707 2.9707 2.9707 2.9707 2.97266 2.97266 2.97266 2.97266 2.97266 2.97266 2.97266 2.97461 2.97461 2.97461 2.97461 2.97656 2.97656 2.97656 2.97656 2.97852 2.97852 2.97852 2.98047 2.98047 2.98047 2.98242 2.98242 2.98438 2.98438 2.98633 2.98633 2.98828 2.98828 2.99023 2.99023 2.99219 2.99219 2.99414 2.99414 2.99609 2.99805 2.99805 3 3.00195 3.00195 3.00391 3.00586 3.00586 3.00781 3.00977 3.01172 3.01172 3.01367 3.01563 3.01758 3.01953 3.01953 3.02148 3.02344 3.02539 3.02734 3.0293 3.03125 3.0332 3.03516 3.03711 3.03906 3.04102 3.04297 3.04492 3.04688 3.04883 3.05078 3.05273 3.05469 3.05664 3.06055 3.0625 3.06445 3.06641 3.06836 3.07031 3.07422 3.07617 3.07813 3.08008 3.08398 3.08594 3.08789 3.0918 3.09375 3.0957 3.09961 3.10156 3.10547 3.10742 3.10938 3.11328 3.11523 3.11914 3.12109 3.125 3.12695 3.13086 3.13281 3.13672 3.13867 3.14258 3.14648 3.14844 3.15234 3.1543 3.1582 3.16211 3.16406 3.16797 3.17188 3.17578 3.17773 3.18164 3.18555 3.18945 3.19141 3.19531 3.19922 3.20313 3.20703 3.21094 3.21289 3.2168 3.2207 3.22461 3.22852 3.23242 3.23633 3.24805 3.27148 54.5 54.5313 54.5938 54.625 54.6875 54.75 54.8125 54.8438 54.9063 54.9688 55 55.0625 55.125 55.1875 55.25 55.2813 55.3438 55.4063 55.4688 55.5313 55.5938 55.6563 55.6875 55.75 55.8125 55.875 55.9375
5.41797 5.43359 5.44922 5.46484 5.48047 5.49609 5.51563 5.53125 5.54688 5.5625 5.58203 5.59766 5.61719 63.4063 63.3125 63.2188 63.125 63.0313 62.9375 62.8438 62.75 62.6563 62.5625 62.4688 62.375 62.3125 62.2188 62.125 62.0313 61.9375 61.8438 61.75 61.6563 61.5938 61.5 61.4063 61.3125 61.2188 61.1563 61.0625 60.9688 60.875 60.7813 60.7188 60.625 60.5313 60.4688 60.375 60.2813 60.1875 60.125 60.0313 59.9375 59.875 59.7813 59.6875 59.625 59.5313 59.4688 59.375 59.2813 59.2188 59.125 59.0625 58.9688 58.9063 58.8125 58.75 58.6563 58.5938 3.3125 3.29102 3.27344 3.26953 3.26563 3.26367 3.25977 3.25586 3.25195 3.25 3.24609 3.24219 3.23828 3.23633 3.23242 3.22852 3.22656 3.22266 3.21875 3.2168 3.21289 3.20898 3.20703 3.20313 3.20117 3.19727 3.19336 3.19141 3.1875 3.18555 3.18164 3.17969 3.17578 3.17188 3.16992 3.16602 3.16406 3.16016 3.1582 3.15625 3.15234 3.15039 3.14648 3.14453 3.14063 3.13867 3.13672 3.13281 3.13086 3.12695 3.125 3.12305 3.11914 3.11719 3.11523 3.11133 3.10938 3.10742 3.10547 3.10156 3.09961 3.09766 3.0957 3.0918 3.08984 3.08789 3.08594 3.08398 3.08008 3.07813 3.07617 3.07422 3.07227 3.07031 3.06836 3.06445 3.0625 3.06055 3.05859 3.05664 3.05469 3.05273 3.05078 3.04883 3.04688 3.04492 3.04297 3.04102 3.03906 3.03711 3.03711 3.03516 3.0332 3.03125 3.0293 3.02734 3.02539 3.02344 3.02344 3.02148 3.01953 3.01758 3.01563 3.01563 3.01367 3.01172 3.00977 3.00977 3.00781 3.00586 3.00586 3.00391 3.00195 3.00195 3 3 2.99805 2.99609 2.99609 2.99414 2.99414 2.99219 2.99219 2.99023 2.99023 2.98828 2.98828 2.98633 2.98633 2.98438 2.98438 2.98438 2.98242 2.98242 2.98242 2.98047 2.98047 2.98047 2.97852 2.97852 2.97852 2.97656 2.97656 2.97656 2.97656 2.97461 2.97461 2.97461 2.97461 2.97461 2.97461 2.97461 2.97266 2.97266 2.97266 2.97266 2.97266 2.97266 2.97266 2.97266 2.97266 2.97266 2.97266 2.97266 2.97266 2.97266 2.97266 2.97266 2.97461 2.97461 2.97461 2.97461 2.97461 2.97461 2.97461 2.97656 2.97656 2.97656 2.97656 2.97852 2.97852 2.97852 2.98047 2.98047 2.98047 2.98242 2.98242 2.98242 2.98438 2.98438 2.98633 2.98633 2.98828 2.98828 2.98828 2.99023 2.99219 2.99219 2.99414 2.99414 2.99609 2.99609 2.99805 3 3 3.00195 3.00195 3.00391 3.00586 3.00781 3.00781 3.00977 3.01172 3.01367 3.01367 3.01563 3.01758 3.01953 3.02148 3.02148 3.02344 3.02539 3.02734 3.0293 3.03125 3.0332 3.03516 3.03711 3.03906 3.04102 3.04297 3.04492 3.04688 3.04883 3.05078 3.05273 3.05469 3.05664 3.05859 3.06055 3.06445 3.06641 3.06836 3.07031 3.07227 3.07617 3.07813 3.08008 3.08203 3.08594 3.08789 3.08984 3.09375 3.0957 3.09766 3.10156 3.10352 3.10742 3.10938 3.11133 3.11523 3.11719 3.12109 3.12305 3.12695 3.12891 3.13281 3.13477 3.13867 3.14063 3.14453 3.14844 3.15039 3.1543 3.1582 3.16016 3.16406 3.16797 3.16992 3.17383 3.17773 3.17969 3.18359 3.1875 3.19141 3.19336 3.19727 3.20117 3.20508 3.20898 3.21289 3.2168 3.21875 3.22266 3.22656 3.23047 3.23438 3.23828 3.25391 3.27734 53.6563 53.7188 53.75 53.8125 53.875 53.9063 53.9688 54.0313 54.0625 54.125 54.1875 54.25 54.2813 54.3438 54.4063 54.4688 54.5 54.5625 54.625 54.6875 54.75 54.8125 54.875 54.9063 54.9688 55.0313 55.0938
5.41406 5.42969 5.44531 5.46094 5.48047 5.49609 5.51172 5.52734 5.54297 5.5625 5.57813 5.59375 5.61328 62.4688 62.375 62.2813 62.1875 62.0938 62 61.9063 61.8125 61.7188 61.6563 61.5625 61.4688 61.375 61.2813 61.1875 61.0938 61.0313 60.9375 60.8438 60.75 60.6563 60.5625 60.5 60.4063 60.3125 60.2188 60.1563 60.0625 59.9688 59.875 59.8125 59.7188 59.625 59.5625 59.4688 59.375 59.3125 59.2188 59.125 59.0625 58.9688 58.9063 58.8125 58.7188 58.6563 58.5625 58.5 58.4063 58.3438 58.25 58.1563 58.0938 58 57.9375 57.8438 57.7813 57.7188 3.31836 3.29688 3.27539 3.27148 3.26953 3.26563 3.26172 3.25781 3.25586 3.25195 3.24805 3.24414 3.24219 3.23828 3.23438 3.23047 3.22852 3.22461 3.2207 3.21875 3.21484 3.21289 3.20898 3.20508 3.20313 3.19922 3.19531 3.19336 3.18945 3.1875 3.18359 3.18164 3.17773 3.17578 3.17188 3.16992 3.16602 3.16406 3.16016 3.1582 3.1543 3.15234 3.14844 3.14648 3.14258 3.14063 3.13867 3.13477 3.13281 3.12891 3.12695 3.125 3.12109 3.11914 3.11719 3.11328 3.11133 3.10938 3.10742 3.10352 3.10156 3.09961 3.09766 3.09375 3.0918 3.08984 3.08789 3.08398 3.08203 3.08008 3.07813 3.07617 3.07422 3.07227 3.07031 3.06641 3.06445 3.0625 3.06055 3.05859 3.05664 3.05469 3.05273 3.05078 3.04883 3.04688 3.04492 3.04297 3.04102 3.03906 3.03711 3.03711 3.03516 3.0332 3.03125 3.0293 3.02734 3.02539 3.02539 3.02344 3.02148 3.01953 3.01758 3.01758 3.01563 3.01367 3.01172 3.01172 3.00977 3.00781 3.00781 3.00586 3.00391 3.00391 3.00195 3 3 2.99805 2.99805 2.99609 2.99609 2.99414 2.99414 2.99219 2.99219 2.99023 2.99023 2.98828 2.98828 2.98633 2.98633 2.98633 2.98438 2.98438 2.98242 2.98242 2.98242 2.98047 2.98047 2.98047 2.98047 2.97852 2.97852 2.97852 2.97852 2.97656 2.97656 2.97656 2.97656 2.97656 2.97656 2.97461 2.97461 2.97461 2.97461 2.97461 2.97461 2.97461 2.97461 2.97461 2.97461 2.97461 2.97461 2.97461 2.97461 2.97461 2.97461 2.97461 2.97461 2.97656 2.97656 2.97656 2.97656 2.97656 2.97656 2.97852 2.97852 2.97852 2.97852 2.98047 2.98047 2.98047 2.98047 2.98242 2.98242 2.98438 2.98438 2.98438 2.98633 2.98633 2.98828 2.98828 2.98828 2.99023 2.99023 2.99219 2.99219 2.99414 2.99414 2.99609 2.99805 2.99805 3 3 3.00195 3.00391 3.00391 3.00586 3.00781 3.00781 3.00977 3.01172 3.01367 3.01367 3.01563 3.01758 3.01953 3.02148 3.02148 3.02344 3.02539 3.02734 3.0293 3.03125 3.0332 3.03516 3.03711 3.03906 3.04102 3.04297 3.04492 3.04688 3.04883 3.05078 3.05273 3.05469 3.05664 3.05859 3.06055 3.0625 3.06641 3.06836 3.07031 3.07227 3.07422 3.07813 3.08008 3.08203 3.08398 3.08789 3.08984 3.0918 3.0957 3.09766 3.09961 3.10352 3.10547 3.10938 3.11133 3.11328 3.11719 3.11914 3.12305 3.125 3.12891 3.13086 3.13477 3.13672 3.14063 3.14453 3.14648 3.15039 3.15234 3.15625 3.16016 3.16211 3.16602 3.16992 3.17188 3.17578 3.17969 3.18164 3.18555 3.18945 3.19336 3.19727 3.19922 3.20313 3.20703 3.21094 3.21484 3.21875 3.22266 3.22461 3.22852 3.23242 3.23633 3.24023 3.25781 3.28125 52.8438 52.9063 52.9688 53 53.0625 53.125 53.1563 53.2188 53.2813 53.3125 53.375 53.4375 53.4688 53.5313 53.5938 53.6563 53.6875 53.75 53.8125 53.875 53.9375 53.9688 54.0313 54.0938 54.1563 54.2188 54.2813
5.41406 5.42969 5.44531 5.46094 5.47656 5.49219 5.50781 5.52344 5.54297 5.55859 5.57422 5.59375 5.60938 61.5625 61.4688 61.375 61.2813 61.1875 61.0938 61 60.9063 60.8125 60.75 60.6563 60.5625 60.4688 60.375 60.2813 60.2188 60.125 60.0313 59.9375 59.875 59.7813 59.6875 59.5938 59.5313 59.4375 59.3438 59.25 59.1875 59.0938 59 58.9375 58.8438 58.75 58.6875 58.5938 58.5 58.4375 58.3438 58.2813 58.1875 58.0938 58.0313 57.9375 57.875 57.7813 57.7188 57.625 57.5625 57.4688 57.4063 57.3125 57.25 57.1563 57.0938 57 56.9375 56.8438 3.32422 3.30273 3.28125 3.27539 3.27148 3.26758 3.26367 3.25977 3.25781 3.25391 3.25 3.24609 3.24414 3.24023 3.23633 3.23438 3.23047 3.22656 3.22461 3.2207 3.2168 3.21484 3.21094 3.20703 3.20508 3.20117 3.19922 3.19531 3.19141 3.18945 3.18555 3.18359 3.17969 3.17773 3.17383 3.17188 3.16797 3.16602 3.16211 3.16016 3.15625 3.1543 3.15039 3.14844 3.14453 3.14258 3.14063 3.13672 3.13477 3.13086 3.12891 3.12695 3.12305 3.12109 3.11914 3.11523 3.11328 3.11133 3.10938 3.10547 3.10352 3.10156 3.09961 3.0957 3.09375 3.0918 3.08984 3.08789 3.08398 3.08203 3.08008 3.07813 3.07617 3.07422 3.07227 3.06836 3.06641 3.06445 3.0625 3.06055 3.05859 3.05664 3.05469 3.05273 3.05078 3.04883 3.04688 3.04492 3.04297 3.04102 3.03906 3.03906 3.03711 3.03516 3.0332 3.03125 3.0293 3.02734 3.02734 3.02539 3.02344 3.02148 3.01953 3.01953 3.01758 3.01563 3.01367 3.01367 3.01172 3.00977 3.00977 3.00781 3.00586 3.00586 3.00391 3.00195 3.00195 3 3 2.99805 2.99805 2.99609 2.99609 2.99414 2.99414 2.99219 2.99219 2.99023 2.99023 2.98828 2.98828 2.98633 2.98633 2.98633 2.98438 2.98438 2.98438 2.98242 2.98242 2.98242 2.98047 2.98047 2.98047 2.98047 2.97852 2.97852 2.97852 2.97852 2.97852 2.97852 2.97656 2.97656 2.97656 2.97656 2.97656 2.97656 2.97656 2.97656 2.97656 2.97656 2.97656 2.97656 2.97656 2.97656 2.97656 2.97656 2.97656 2.97656 2.97656 2.97656 2.97852 2.97852 2.97852 2.97852 2.97852 2.98047 2.98047 2.98047 2.98047 2.98242 2.98242 2.98242 2.98242 2.98438 2.98438 2.98438 2.98633 2.98633 2.98828 2.98828 2.98828 2.99023 2.99023 2.99219 2.99219 2.99414 2.99414 2.99609 2.99609 2.99805 3 3 3.00195 3.00195 3.00391 3.00586 3.00586 3.00781 3.00977 3.00977 3.01172 3.01367 3.01563 3.01563 3.01758 3.01953 3.02148 3.02344 3.02344 3.02539 3.02734 3.0293 3.03125 3.0332 3.03516 3.03711 3.03906 3.04102 3.04297 3.04492 3.04688 3.04883 3.05078 3.05273 3.05469 3.05664 3.05859 3.06055 3.0625 3.06445 3.06836 3.07031 3.07227 3.07422 3.07617 3.08008 3.08203 3.08398 3.08594 3.08984 3.0918 3.09375 3.09766 3.09961 3.10156 3.10547 3.10742 3.11133 3.11328 3.11523 3.11914 3.12109 3.125 3.12695 3.13086 3.13281 3.13672 3.13867 3.14258 3.14648 3.14844 3.15234 3.1543 3.1582 3.16211 3.16406 3.16797 3.17188 3.17383 3.17773 3.53516 3.53906 3.52734 3.5 3.47461 3.45117 3.42578 3.40234 3.37695 3.35547 3.33203 3.30859 3.28711 3.26563 3.24414 3.23438 3.23828 3.24219 3.26367 3.28711 52.0625 52.125 52.1875 52.2188 52.2813 52.3125 52.375 52.4375 52.4688 52.5313 52.5938 52.625 52.6875 52.75 52.8125 52.8438 52.9063 52.9688 53.0313 53.0625 53.125 53.1875 53.25 53.3125 53.375 53.4063 53.4688
5.41016 5.42578 5.44141 5.45703 5.47266 5.48828 5.50391 5.52344 5.53906 5.55469 5.57422 5.58984 5.60547 60.6563 60.5625 60.4688 60.375 60.3125 60.2188 60.125 60.0313 59.9375 59.8438 59.7813 59.6875 59.5938 59.5 59.4375 59.3438 59.25 59.1563 59.0938 59 58.9063 58.8125 58.75 58.6563 58.5625 58.5 58.4063 58.3125 58.25 58.1563 58.0625 58 57.9063 57.8125 57.75 57.6563 57.5938 57.5 57.4375 57.3438 57.25 57.1875 57.0938 57.0313 56.9375 56.875 56.7813 56.7188 56.625 56.5625 56.4688 56.4063 56.3438 56.25 56.1875 56.0938 56.0313 55.9688 3.30859 3.28711 3.27734 3.27344 3.26953 3.26563 3.26367 3.25977 3.25586 3.25195 3.25 3.24609 3.24219 3.23828 3.23633 3.23242 3.22852 3.22656 3.22266 3.21875 3.2168 3.21289 3.21094 3.20703 3.20313 3.20117 3.19727 3.19531 3.19141 3.1875 3.18555 3.18164 3.17969 3.17578 3.17383 3.16992 3.16797 3.16406 3.16211 3.1582 3.15625 3.15234 3.15039 3.14648 3.14453 3.14258 3.13867 3.13672 3.13477 3.13086 3.12891 3.125 3.12305 3.12109 3.11719 3.11523 3.11328 3.11133 3.10742 3.10547 3.10352 3.10156 3.09766 3.0957 3.09375 3.0918 3.08984 3.08594 3.08398 3.08203 3.08008 3.07813 3.07617 3.07422 3.07031 3.06836 3.06641 3.06445 3.0625 3.06055 3.05859 3.05664 3.05469 3.05273 3.05078 3.04883 3.04688 3.04492 3.04297 3.04102 3.04102 3.03906 3.03711 3.03516 3.0332 3.03125 3.0293 3.02734 3.02734 3.02539 3.02344 3.02148 3.02148 3.01953 3.01758 3.01563 3.01563 3.01367 3.01172 3.01172 3.00977 3.00781 3.00781 3.00586 3.00391 3.00391 3.00195 3.00195 3 3 2.99805 2.99609 2.99609 2.99414 2.99414 2.99414 2.99219 2.99219 2.99023 2.99023 2.98828 2.98828 2.98828 2.98633 2.98633 2.98633 2.98438 2.98438 2.98438 2.98242 2.98242 2.98242 2.98242 2.98047 2.98047 2.98047 2.98047 2.98047 2.98047 2.97852 2.97852 2.97852 2.97852 2.97852 2.97852 2.97852 2.97852 2.97852 2.97852 2.97852 2.97852 2.97852 2.97852 2.97852 2.97852 2.97852 2.97852 2.97852 2.97852 2.98047 2.98047 2.98047 2.98047 2.98047 2.98047 2.98242 2.98242 2.98242 2.98242 2.98438 2.98438 2.98438 2.98633 2.98633 2.98633 2.98828 2.98828 2.99023 2.99023 2.99023 2.99219 2.99219 2.99414 2.99414 2.99609 2.99609 2.99805 2.99805 3 3.00195 3.00195 3.00391 3.00391 3.00586 3.00781 3.00781 3.00977 3.01172 3.01172 3.01367 3.01563 3.01758 3.01758 3.01953 3.02148 3.02344 3.02539 3.02539 3.02734 3.0293 3.03125 3.37109 3.37305 3.375 3.37695 3.37891 3.38086 3.38281 3.38477 3.38672 3.39063 3.39258 3.39453 3.39648 3.39844 3.40234 3.4043 3.40625 3.4082 3.41211 3.41406 3.41602 3.41992 3.42188 3.42383 3.42773 3.42969 3.43359 3.43555 3.43945 3.44141 3.44336 3.44727 3.44922 3.45313 3.45703 3.45898 3.46289 3.46484 3.46875 3.47266 3.47461 3.47852 3.48242 3.48438 3.48828 3.49219 3.49414 3.49805 3.50195 3.50586 3.50977 3.51172 3.51563 3.51953 3.52344 3.52734 3.53125 3.53516 3.53906 3.54102 3.52539 3.5 3.47461 3.44922 3.42383 3.40039 3.37695 3.35352 3.33008 3.30859 3.28516 3.26367 3.24219 3.23828 3.24219 3.24609 3.26758 3.29297 51.3125 51.375 51.4063 51.4688 51.5313 51.5625 51.625 51.6563 51.7188 51.7813 51.8125 51.875 51.9375 51.9688 52.0313 52.0938 52.1563 52.1875 52.25 52.3125 52.375 52.4063 52.4688 52.5313 52.5938 52.6563 52.6875
5.40625 5.42188 5.4375 5.45313 5.46875 5.48828 5.50391 5.51953 5.53516 5.55078 5.57031 5.58594 5.60547 5.62109 59.7188 59.625 59.5313 59.4375 59.3438 59.25 59.1875 59.0938 59 58.9063 58.8438 58.75 58.6563 58.5625 58.5 58.4063 58.3125 58.25 58.1563 58.0625 58 57.9063 57.8125 57.75 57.6563 57.5625 57.5 57.4063 57.3125 57.25 57.1563 57.0938 57 56.9063 56.8438 56.75 56.6875 56.5938 56.5313 56.4375 56.375 56.2813 56.2188 56.125 56.0625 55.9688 55.9063 55.8125 55.75 55.6875 55.5938 55.5313 55.4375 55.375 55.3125 55.2188 55.1563 3.31641 3.29492 3.2793 3.27539 3.27148 3.26953 3.26563 3.26172 3.25781 3.25586 3.25195 3.24805 3.24414 3.24219 3.23828 3.23438 3.23242 3.22852 3.22461 3.22266 3.21875 3.21484 3.21289 3.20898 3.20508 3.20313 3.19922 3.19727 3.19336 3.18945 3.1875 3.18359 3.18164 3.17773 3.17578 3.17188 3.16992 3.16602 3.16406 3.16016 3.1582 3.1543 3.15234 3.15039 3.14648 3.14453 3.14063 3.13867 3.13672 3.13281 3.13086 3.12891 3.125 3.12305 3.12109 3.11719 3.11523 3.11328 3.10938 3.10742 3.10547 3.10352 3.09961 3.09766 3.0957 3.09375 3.0918 3.08789 3.08594 3.08398 3.08203 3.08008 3.07813 3.07617 3.07227 3.07031 3.06836 3.06641 3.06445 3.0625 3.06055 3.05859 3.05664 3.05469 3.05273 3.05078 3.04883 3.04688 3.04492 3.04297 3.04102 3.04102 3.03906 3.03711 3.03516 3.0332 3.03125 3.0293 3.0293 3.02734 3.02539 3.02344 3.02344 3.02148 3.01953 3.01758 3.01758 3.01563 3.01367 3.01367 3.01172 3.00977 3.00977 3.00781 3.00586 3.00586 3.00391 3.00391 3.00195 3 3 2.99805 2.99805 2.99609 2.99609 2.99414 2.99414 2.99414 2.99219 2.99219 2.99023 2.99023 2.99023 2.98828 2.98828 2.98828 2.98633 2.98633 2.98633 2.98438 2.98438 2.98438 2.98438 2.98242 2.98242 2.98242 2.98242 2.98242 2.98047 2.98047 2.98047 2.98047 2.98047 2.98047 2.98047 2.98047 2.98047 2.98047 2.98047 2.98047 2.98047 2.98047 3.3125 3.3125 3.3125 3.3125 3.3125 3.3125 3.3125 3.3125 3.31445 3.31445 3.31445 3.31445 3.31641 3.31641 3.31641 3.31641 3.31836 3.31836 3.31836 3.32031 3.32031 3.32031 3.32227 3.32227 3.32422 3.32422 3.32617 3.32617 3.32813 3.32813 3.33008 3.33008 3.33203 3.33203 3.33398 3.33398 3.33594 3.33789 3.33789 3.33984 3.3418 3.3418 3.34375 3.3457 3.34766 3.34766 3.34961 3.35156 3.35352 3.35547 3.35742 3.35742 3.35938 3.36133 3.36328 3.36523 3.36719 3.36914 3.37109 3.37305 3.375 3.37695 3.37891 3.38086 3.38281 3.38477 3.38672 3.39063 3.39258 3.39453 3.39648 3.39844 3.40234 3.4043 3.40625 3.4082 3.41211 3.41406 3.41602 3.41797 3.42188 3.42383 3.42773 3.42969 3.43164 3.43555 3.4375 3.44141 3.44336 3.44727 3.44922 3.45313 3.45508 3.45898 3.46094 3.46484 3.46875 3.4707 3.47461 3.47656 3.48047 3.48438 3.48633 3.49023 3.49414 3.49805 3.5 3.50391 3.50781 3.51172 3.51563 3.51758 3.52148 3.52539 3.5293 3.5332 3.53711 3.54102 3.54492 3.52539 3.49805 3.47266 3.44922 3.42383 3.40039 3.375 3.35156 3.33008 3.30664 3.28516 3.26367 3.24219 3.24023 3.24414 3.25 3.27344 3.29688 50.5938 50.625 50.6875 50.7188 50.7813 50.8438 50.875 50.9375 50.9688 51.0313 51.0938 51.125 51.1875 51.25 51.2813 51.3438 51.4063 51.4375 51.5 51.5625 51.625 51.6563 51.7188 51.7813 51.8438 51.9063 51.9375
5.41016 5.42188 5.4375 5.45313 5.46875 5.48438 5.5 5.51563 5.53125 5.55078 5.56641 5.58203 5.60156 5.61719 58.875 58.7813 58.6875 58.5938 58.5313 58.4375 58.3438 58.25 58.1875 58.0938 58 57.9063 57.8438 57.75 57.6563 57.5938 57.5 57.4063 57.3438 57.25 57.1563 57.0938 57 56.9375 56.8438 56.75 56.6875 56.5938 56.5313 56.4375 56.3438 56.2813 56.1875 56.125 56.0313 55.9688 55.875 55.8125 55.7188 55.6563 55.5625 55.5 55.4063 55.3438 55.2813 55.1875 55.125 55.0313 54.9688 54.9063 54.8125 54.75 54.6563 54.5938 54.5313 54.4375 54.375 3.32227 3.30078 3.28125 3.27734 3.27539 3.27148 3.26758 3.26367 3.25977 3.25781 3.25391 3.25 3.24805 3.24414 3.24023 3.23633 3.23438 3.23047 3.22656 3.22461 3.2207 3.2168 3.21484 3.21094 3.20898 3.20508 3.20117 3.19922 3.19531 3.19336 3.18945 3.1875 3.18359 3.17969 3.17773 3.17383 3.17188 3.16797 3.16602 3.16211 3.16016 3.1582 3.1543 3.15234 3.14844 3.14648 3.14258 3.14063 3.13867 3.13477 3.13281 3.13086 3.12695 3.125 3.12305 3.11914 3.11719 3.11523 3.11133 3.10938 3.10742 3.10547 3.10156 3.09961 3.09766 3.0957 3.09375 3.08984 3.08789 3.08594 3.08398 3.08203 3.08008 3.07813 3.07617 3.07227 3.07031 3.06836 3.06641 3.06445 3.0625 3.06055 3.05859 3.05664 3.05469 3.05273 3.05078 3.04883 3.04688 3.04492 3.04492 3.04297 3.04102 3.03906 3.03711 3.03516 3.0332 3.03125 3.03125 3.0293 3.02734 3.02539 3.02539 3.02344 3.35742 3.35742 3.35547 3.35352 3.35156 3.34961 3.34961 3.34766 3.3457 3.3457 3.34375 3.3418 3.3418 3.33984 3.33789 3.33789 3.33594 3.33594 3.33398 3.33203 3.33203 3.33008 3.33008 3.32813 3.32813 3.32617 3.32617 3.32617 3.32422 3.32422 3.32227 3.32227 3.32227 3.32031 3.32031 3.32031 3.31836 3.31836 3.31836 3.31836 3.31641 3.31641 3.31641 3.31641 3.31641 3.31445 3.31445 3.31445 3.31445 3.31445 3.31445 3.31445 3.31445 3.31445 3.31445 3.31445 3.31445 3.31445 3.31445 3.31445 3.31445 3.31445 3.31445 3.31445 3.31445 3.31641 3.31641 3.31641 3.31641 3.31641 3.31836 3.31836 3.31836 3.31836 3.32031 3.32031 3.32031 3.32227 3.32227 3.32227 3.32422 3.32422 3.32617 3.32617 3.32813 3.32813 3.33008 3.33008 3.33203 3.33203 3.33398 3.33398 3.33594 3.33789 3.33789 3.33984 3.33984 3.3418 3.34375 3.3457 3.3457 3.34766 3.34961 3.35156 3.35156 3.35352 3.35547 3.35742 3.35938 3.36133 3.36133 3.36328 3.36523 3.36719 3.36914 3.37109 3.37305 3.375 3.37695 3.37891 3.38086 3.38281 3.38477 3.38867 3.39063 3.39258 3.39453 3.39648 3.39844 3.40039 3.4043 3.40625 3.4082 3.41016 3.41406 3.41602 3.41797 3.42188 3.42383 3.42578 3.42969 3.43164 3.43555 3.4375 3.43945 3.44336 3.44531 3.44922 3.45117 3.45508 3.45703 3.46094 3.46484 3.4668 3.4707 3.47266 3.47656 3.48047 3.48242 3.48633 3.49023 3.49219 3.49609 3.5 3.50391 3.50586 3.50977 3.51367 3.51758 3.52148 3.52539 3.52734 3.53125 3.53516 3.53906 3.54297 3.54688 3.52344 3.49805 3.47266 3.44727 3.42188 3.39844 3.375 3.35156 3.32813 3.30664 3.2832 3.26172 3.24023 3.24219 3.24609 3.25586 3.2793 49.8125 49.875 49.9063 49.9688 50 50.0625 50.125 50.1563 50.2188 50.25 50.3125 50.375 50.4063 50.4688 50.5 50.5625 50.625 50.6563 50.7188 50.7813 50.8438 50.875 50.9375 51 51.0625 51.0938 51.1563 51.2188
5.41406 5.41797 5.43359 5.44922 5.46484 5.48047 5.49609 5.51172 5.53125 5.54688 5.5625 5.58203 5.59766 5.61719 58.0625 57.9688 57.875 57.7813 57.7188 57.625 57.5313 57.4375 57.375 57.2813 57.1875 57.125 57.0313 56.9375 56.875 56.7813 56.6875 56.625 56.5313 56.4688 56.375 56.2813 56.2188 56.125 56.0625 55.9688 55.9063 55.8125 55.7188 55.6563 55.5625 55.5 55.4063 55.3438 55.25 55.1875 55.0938 55.0313 54.9375 54.875 54.8125 54.7188 54.6563 54.5625 54.5 54.4375 54.3438 54.2813 54.1875 54.125 54.0625 53.9688 53.9063 53.8438 53.75 53.6875 53.625 3.33008 3.30664 3.28516 3.28125 3.27734 3.27344 3.26953 3.26563 3.26367 3.25977 3.25586 3.25195 3.25 3.24609 3.24219 3.24023 3.23633 3.23242 3.23047 3.22656 3.22266 3.2207 3.2168 3.21289 3.21094 3.20703 3.20508 3.20117 3.19727 3.19531 3.19141 3.18945 3.18555 3.18359 3.17969 3.17773 3.17383 3.17188 3.16797 3.16602 3.16211 3.16016 3.15625 3.1543 3.15039 3.14844 3.49609 3.49219 3.49023 3.48633 3.48438 3.48047 3.47852 3.47461 3.47266 3.46875 3.4668 3.46484 3.46094 3.45898 3.45508 3.45313 3.45117 3.44727 3.44531 3.44336 3.43945 3.4375 3.43555 3.43164 3.42969 3.42773 3.42578 3.42188 3.41992 3.41797 3.41602 3.41211 3.41016 3.4082 3.40625 3.4043 3.40234 3.40039 3.39844 3.39453 3.39258 3.39063 3.38867 3.38672 3.38477 3.38281 3.38086 3.37891 3.37695 3.375 3.37305 3.37305 3.37109 3.36914 3.36719 3.36523 3.36328 3.36133 3.35938 3.35938 3.35742 3.35547 3.35352 3.35352 3.35156 3.34961 3.34766 3.34766 3.3457 3.34375 3.34375 3.3418 3.33984 3.33984 3.33789 3.33789 3.33594 3.33594 3.33398 3.33203 3.33203 3.33008 3.33008 3.33008 3.32813 3.32813 3.32617 3.32617 3.32422 3.32422 3.32422 3.32227 3.32227 3.32227 3.32031 3.32031 3.32031 3.32031 3.31836 3.31836 3.31836 3.31836 3.31836 3.31641 3.31641 3.31641 3.31641 3.31641 3.31641 3.31641 3.31641 3.31641 3.31641 3.31641 3.31641 3.31641 3.31641 3.31641 3.31641 3.31641 3.31641 3.31641 3.31641 3.31836 3.31836 3.31836 3.31836 3.31836 3.32031 3.32031 3.32031 3.32031 3.32227 3.32227 3.32227 3.32422 3.32422 3.32617 3.32617 3.32617 3.32813 3.32813 3.33008 3.33008 3.33203 3.33203 3.33398 3.33398 3.33594 3.33594 3.33789 3.33984 3.33984 3.3418 3.34375 3.34375 3.3457 3.34766 3.34766 3.34961 3.35156 3.35352 3.35352 3.35547 3.35742 3.35938 3.36133 3.36328 3.36523 3.36523 3.36719 3.36914 3.37109 3.37305 3.375 3.37695 3.37891 3.38086 3.38281 3.38477 3.38867 3.39063 3.39258 3.39453 3.39648 3.39844 3.40039 3.4043 3.40625 3.4082 3.41016 3.41406 3.41602 3.41797 3.42188 3.42383 3.42578 3.42969 3.43164 3.43359 3.4375 3.43945 3.44336 3.44531 3.44922 3.45117 3.45508 3.45703 3.46094 3.46289 3.4668 3.46875 3.47266 3.47656 3.47852 3.48242 3.48633 3.48828 3.49219 3.49609 3.49805 3.50195 3.50586 3.50977 3.51172 3.51563 3.51953 3.52344 3.52734 3.53125 3.53516 3.53906 3.54102 3.54492 3.54883 3.52344 3.49609 3.4707 3.44727 3.42188 3.39844 3.37305 3.34961 3.32813 3.30469 3.2832 3.26172 3.24023 3.24414 3.24805 3.25977 3.2832 49.125 49.1875 49.2188 49.2813 49.3125 49.375 49.4063 49.4688 49.5 49.5625 49.5938 49.6563 49.7188 49.75 49.8125 49.875 49.9063 49.9688 50.0313 50.0625 50.125 50.1875 50.2188 50.2813 50.3438 50.4063 50.4375 50.5
5.41797 5.41406 5.42969 5.44531 5.46094 5.47656 5.49609 5.51172 5.52734 5.54297 5.5625 5.57813 5.59375 5.61328 5.62891 57.1563 57.0938 57 56.9063 56.8438 56.75 56.6563 56.5938 56.5 56.4063 56.3438 56.25 56.1563 56.0938 56 55.9375 55.8438 55.75 55.6875 55.5938 55.5313 55.4375 55.375 55.2813 55.2188 55.125 55.0313 54.9688 54.875 54.8125 54.75 54.6563 54.5938 54.5 54.4375 54.3438 54.2813 54.1875 54.125 54.0625 53.9688 53.9063 53.8125 53.75 53.6875 53.5938 53.5313 53.4688 53.375 53.3125 53.25 53.1563 53.0938 53.0313 52.9375 52.875 3.33594 3.31445 3.29297 3.2832 3.2793 3.27539 3.28516 3.30273 3.32031 3.33789 3.35547 3.375 3.39258 3.41211 3.42969 3.44922 3.46875 3.49023 3.50977 3.53125 3.55078 3.57227 3.57813 3.57422 3.57031 3.56641 3.56445 3.56055 3.55664 3.55273 3.55078 3.54688 3.54297 3.53906 3.53711 3.5332 3.5293 3.52734 3.52344 3.51953 3.51758 3.51367 3.51172 3.50781 3.50391 3.50195 3.49805 3.49609 3.49219 3.49023 3.48633 3.48438 3.48047 3.47852 3.47461 3.47266 3.46875 3.4668 3.46289 3.46094 3.45898 3.45508 3.45313 3.44922 3.44727 3.44531 3.44141 3.43945 3.4375 3.43555 3.43164 3.42969 3.42773 3.42383 3.42188 3.41992 3.41797 3.41602 3.41211 3.41016 3.4082 3.40625 3.4043 3.40234 3.40039 3.39844 3.39648 3.39453 3.39063 3.38867 3.38672 3.38477 3.38281 3.38086 3.37891 3.37891 3.37695 3.375 3.37305 3.37109 3.36914 3.36719 3.36523 3.36328 3.36328 3.36133 3.35938 3.35742 3.35547 3.35547 3.35352 3.35156 3.35156 3.34961 3.34766 3.3457 3.3457 3.34375 3.34375 3.3418 3.33984 3.33984 3.33789 3.33789 3.33594 3.33594 3.33398 3.33398 3.33203 3.33203 3.33008 3.33008 3.32813 3.32813 3.32813 3.32617 3.32617 3.32422 3.32422 3.32422 3.32422 3.32227 3.32227 3.32227 3.32227 3.32031 3.32031 3.32031 3.32031 3.32031 3.31836 3.31836 3.31836 3.31836 3.31836 3.31836 3.31836 3.31836 3.31836 3.31836 3.31836 3.31836 3.31836 3.31836 3.31836 3.31836 3.31836 3.31836 3.32031 3.32031 3.32031 3.32031 3.32031 3.32227 3.32227 3.32227 3.32227 3.32422 3.32422 3.32422 3.32617 3.32617 3.32617 3.32813 3.32813 3.32813 3.33008 3.33008 3.33203 3.33203 3.33398 3.33398 3.33594 3.33594 3.33789 3.33984 3.33984 3.3418 3.3418 3.34375 3.3457 3.3457 3.34766 3.34961 3.35156 3.35156 3.35352 3.35547 3.35742 3.35742 3.35938 3.36133 3.36328 3.36523 3.36719 3.36914 3.37109 3.37305 3.37305 3.375 3.37695 3.37891 3.38086 3.38477 3.38672 3.38867 3.39063 3.39258 3.39453 3.39648 3.39844 3.40039 3.4043 3.40625 3.4082 3.41016 3.41406 3.41602 3.41797 3.41992 3.42383 3.42578 3.42773 3.43164 3.43359 3.4375 3.43945 3.44141 3.44531 3.44727 3.45117 3.45313 3.45703 3.45898 3.46289 3.46484 3.46875 3.47266 3.47461 3.47852 3.48047 3.48438 3.48828 3.49219 3.49414 3.49805 3.50195 3.50391 3.50781 3.51172 3.51563 3.51953 3.52148 3.52539 3.5293 3.5332 3.53711 3.54102 3.54492 3.54883 3.54883 3.52148 3.49609 3.4707 3.44531 3.41992 3.39648 3.37305 3.34961 3.32617 3.30469 3.28125 3.25977 3.24414 3.24609 3.25 3.26563 3.28906 48.4375 48.5 48.5313 48.5938 48.625 48.6875 48.7188 48.7813 48.8438 48.875 48.9375 48.9688 49.0313 49.0625 49.125 49.1875 49.2188 49.2813 49.3438 49.375 49.4375 49.5 49.5313 49.5938 49.6563 49.6875 49.75 49.8125
5.42578 5.41797 5.42578 5.44531 5.46094 5.47656 5.49219 5.50781 5.52344 5.54297 5.55859 5.57422 5.59375 5.60938 5.62891 56.4063 56.3125 56.2188 56.1563 56.0625 55.9688 55.9063 55.8125 55.75 55.6563 55.5625 55.5 55.4063 55.3438 55.25 55.1563 55.0938 55 54.9375 54.8438 54.7813 54.6875 54.625 54.5313 54.4688 54.375 54.3125 54.2188 54.1563 54.0625 54 53.9063 53.8438 53.75 53.6875 53.625 53.5313 53.4688 53.375 53.3125 53.25 53.1563 53.0938 53.0313 52.9375 52.875 52.8125 52.7188 52.6563 52.5938 52.5313 52.4375 52.375 52.3125 52.25 52.1563 52.0938 3.32031 3.29883 3.28516 3.28125 3.27734 3.2832 3.30078 3.31836 3.33594 3.35352 3.37109 3.39063 3.41016 3.42773 3.44727 3.4668 3.48633 3.50781 3.52734 3.54883 3.57031 3.58008 3.57617 3.57227 3.57031 3.56641 3.5625 3.55859 3.55664 3.55273 3.54883 3.54492 3.54297 3.53906 3.53516 3.5332 3.5293 3.52539 3.52344 3.51953 3.51563 3.51367 3.50977 3.50781 3.50391 3.5 3.49805 3.49414 3.49219 3.48828 3.48633 3.48242 3.48047 3.47656 3.47461 3.4707 3.46875 3.4668 3.46289 3.46094 3.45703 3.45508 3.45313 3.44922 3.44727 3.44531 3.44141 3.43945 3.4375 3.43359 3.43164 3.42969 3.42773 3.42383 3.42188 3.41992 3.41797 3.41602 3.41406 3.41016 3.4082 3.40625 3.4043 3.40234 3.40039 3.39844 3.39648 3.39453 3.39258 3.39063 3.38867 3.38672 3.38477 3.38281 3.38086 3.37891 3.37695 3.375 3.37305 3.37109 3.36914 3.36719 3.36719 3.36523 3.36328 3.36133 3.35938 3.35938 3.35742 3.35547 3.35352 3.35352 3.35156 3.34961 3.34961 3.34766 3.3457 3.3457 3.34375 3.3418 3.3418 3.33984 3.33984 3.33789 3.33789 3.33594 3.33594 3.33398 3.33398 3.33203 3.33203 3.33008 3.33008 3.33008 3.32813 3.32813 3.32813 3.32617 3.32617 3.32617 3.32422 3.32422 3.32422 3.32422 3.32227 3.32227 3.32227 3.32227 3.32227 3.32227 3.32031 3.32031 3.32031 3.32031 3.32031 3.32031 3.32031 3.32031 3.32031 3.32031 3.32031 3.32031 3.32031 3.32031 3.32031 3.32031 3.32227 3.32227 3.32227 3.32227 3.32227 3.32227 3.32422 3.32422 3.32422 3.32422 3.32617 3.32617 3.32617 3.32813 3.32813 3.32813 3.33008 3.33008 3.33203 3.33203 3.33398 3.33398 3.33398 3.33594 3.33594 3.33789 3.33984 3.33984 3.3418 3.3418 3.34375 3.3457 3.3457 3.34766 3.34961 3.34961 3.35156 3.35352 3.35352 3.35547 3.35742 3.35938 3.36133 3.36133 3.36328 3.36523 3.36719 3.36914 3.37109 3.37305 3.375 3.37695 3.37891 3.38086 3.38281 3.38477 3.38672 3.38867 3.39063 3.39258 3.39453 3.39648 3.39844 3.40039 3.4043 3.40625 3.4082 3.41016 3.41211 3.41602 3.41797 3.41992 3.42383 3.42578 3.42773 3.43164 3.43359 3.43555 3.43945 3.44141 3.44531 3.44727 3.45117 3.45313 3.45703 3.45898 3.46289 3.46484 3.46875 3.4707 3.47461 3.47656 3.48047 3.48438 3.48633 3.49023 3.49414 3.49609 3.5 3.50391 3.50781 3.50977 3.51367 3.51758 3.52148 3.52539 3.5293 3.53125 3.53516 3.53906 3.54297 3.54688 3.55078 3.54688 3.52148 3.49414 3.46875 3.44531 3.41992 3.39648 3.37109 3.34961 3.32617 3.30273 3.28125 3.25977 3.24609 3.25 3.25391 3.26953 3.29492 47.7813 47.8438 47.875 47.9375 47.9688 48.0313 48.0625 48.125 48.1563 48.2188 48.25 48.3125 48.375 48.4063 48.4688 48.5 48.5625 48.625 48.6563 48.7188 48.75 48.8125 48.875 48.9375 48.9688 49.0313 49.0938 49.125
5.42969 5.42188 5.42578 5.44141 5.45703 5.47266 5.48828 5.50391 5.52344 5.53906 5.55469 5.57422 5.58984 5.60547 5.625 55.6563 55.5625 55.4688 55.4063 55.3125 55.25 55.1563 55.0625 55 54.9063 54.8438 54.75 54.6563 54.5938 54.5 54.4375 54.3438 54.2813 54.1875 54.125 54.0313 53.9688 53.875 53.8125 53.7188 53.6563 53.5625 53.5 53.4375 53.3438 53.2813 53.1875 53.125 53.0625 52.9688 52.9063 52.8125 52.75 52.6875 52.5938 52.5313 52.4688 52.375 52.3125 52.25 52.1563 52.0938 52.0313 51.9688 51.875 51.8125 51.75 51.6875 51.5938 51.5313 51.4688 51.4063 3.32813 3.30469 3.28711 3.28516 3.28125 3.28125 3.29883 3.31641 3.33398 3.35156 3.36914 3.38867 3.40625 3.42578 3.44531 3.46484 3.48438 3.50586 3.52539 3.54688 3.56836 3.58203 3.58008 3.57617 3.57227 3.56836 3.56445 3.5625 3.55859 3.55469 3.55078 3.54883 3.54492 3.54102 3.53906 3.53516 3.53125 3.5293 3.52539 3.52148 3.51953 3.51563 3.51367 3.50977 3.50586 3.50391 3.5 3.49805 3.49414 3.49219 3.48828 3.48633 3.48242 3.48047 3.47656 3.47461 3.4707 3.46875 3.46484 3.46289 3.46094 3.45703 3.45508 3.45313 3.44922 3.44727 3.44531 3.44141 3.43945 3.4375 3.43359 3.43164 3.42969 3.42773 3.42383 3.42188 3.41992 3.41797 3.41602 3.41406 3.41016 3.4082 3.40625 3.4043 3.40234 3.40039 3.39844 3.39648 3.39453 3.39258 3.39063 3.38867 3.38672 3.38477 3.38281 3.38086 3.37891 3.37695 3.375 3.37305 3.37109 3.37109 3.36914 3.36719 3.36523 3.36328 3.36328 3.36133 3.35938 3.35742 3.35742 3.35547 3.35352 3.35156 3.35156 3.34961 3.34766 3.34766 3.3457 3.3457 3.34375 3.3418 3.3418 3.33984 3.33984 3.33789 3.33789 3.33594 3.33594 3.33398 3.33398 3.33398 3.33203 3.33203 3.33008 3.33008 3.33008 3.32813 3.32813 3.32813 3.32813 3.32617 3.32617 3.32617 3.32617 3.32422 3.32422 3.32422 3.32422 3.32422 3.32422 3.32227 3.32227 3.32227 3.32227 3.32227 3.32227 3.32227 3.32227 3.32227 3.32227 3.32227 3.32227 3.32227 3.32227 3.32422 3.32422 3.32422 3.32422 3.32422 3.32422 3.32617 3.32617 3.32617 3.32617 3.32813 3.32813 3.32813 3.32813 3.33008 3.33008 3.33203 3.33203 3.33203 3.33398 3.33398 3.33594 3.33594 3.33789 3.33789 3.33984 3.33984 3.3418 3.3418 3.34375 3.34375 3.3457 3.34766 3.34766 3.34961 3.35156 3.35156 3.35352 3.35547 3.35742 3.35742 3.35938 3.36133 3.36328 3.36523 3.36523 3.36719 3.36914 3.37109 3.37305 3.375 3.37695 3.37891 3.38086 3.38281 3.38477 3.38672 3.38867 3.39063 3.39258 3.39453 3.39648 3.39844 3.40234 3.4043 3.40625 3.4082 3.41016 3.41211 3.41602 3.41797 3.41992 3.42383 3.42578 3.42773 3.43164 3.43359 3.43555 3.43945 3.44141 3.44336 3.44727 3.44922 3.45313 3.45508 3.45898 3.46094 3.46484 3.4668 3.4707 3.47461 3.47656 3.48047 3.48242 3.48633 3.49023 3.49219 3.49609 3.5 3.50391 3.50586 3.50977 3.51367 3.51758 3.51953 3.52344 3.52734 3.53125 3.53516 3.53906 3.54297 3.54492 3.54883 3.55273 3.54688 3.51953 3.49414 3.46875 3.44336 3.41992 3.39453 3.37109 3.34766 3.32422 3.30273 3.2793 3.25781 3.24805 3.25195 3.25586 3.27539 3.29883 47.1563 47.1875 47.25 47.2813 47.3438 47.375 47.4375 47.4688 47.5313 47.5625 47.625 47.6563 47.7188 47.75 47.8125 47.875 47.9063 47.9688 48 48.0625 48.125 48.1563 48.2188 48.2813 48.3125 48.375 48.4375 48.4688
5.43359 5.42578 5.42188 5.4375 5.45313 5.46875 5.48438 5.50391 5.51953 5.53516 5.55078 5.57031 5.58594 5.60547 5.62109 5.64063 54.8438 54.75 54.6563 54.5938 54.5 54.4375 54.3438 54.2813 54.1875 54.0938 54.0313 53.9375 53.875 53.7813 53.7188 53.625 53.5625 53.4688 53.4063 53.3125 53.25 53.1875 53.0938 53.0313 52.9375 52.875 52.7813 52.7188 52.6563 52.5625 52.5 52.4063 52.3438 52.2813 52.1875 52.125 52.0625 51.9688 51.9063 51.8438 51.7813 51.6875 51.625 51.5625 51.4688 51.4063 51.3438 51.2813 51.1875 51.125 51.0625 51 50.9375 50.8438 50.7813 50.7188 3.33398 3.3125 3.29102 3.28711 3.2832 3.2793 3.29688 3.31445 3.33203 3.34961 3.36719 3.38672 3.4043 3.42383 3.44336 3.46289 3.48242 3.50195 3.52344 3.54492 3.56445 3.58594 3.58203 3.57813 3.57422 3.57227 3.56836 3.56445 3.56055 3.55859 3.55469 3.55078 3.54688 3.54492 3.54102 3.53711 3.53516 3.53125 3.52734 3.52539 3.52148 3.51758 3.51563 3.51172 3.50977 3.50586 3.50391 3.5 3.49609 3.49414 3.49023 3.48828 3.48438 3.48242 3.47852 3.47656 3.47461 3.4707 3.46875 3.46484 3.46289 3.46094 3.45703 3.45508 3.45117 3.44922 3.44727 3.44531 3.44141 3.43945 3.4375 3.43359 3.43164 3.42969 3.42773 3.42578 3.42188 3.41992 3.41797 3.41602 3.41406 3.41211 3.4082 3.40625 3.4043 3.40234 3.40039 3.39844 3.39648 3.39453 3.39258 3.39063 3.38867 3.38672 3.38477 3.38281 3.38086 3.37891 3.37695 3.37695 3.375 3.37305 3.37109 3.36914 3.36719 3.36719 3.36523 3.36328 3.36133 3.35938 3.35938 3.35742 3.35547 3.35547 3.35352 3.35156 3.35156 3.34961 3.34766 3.34766 3.3457 3.3457 3.34375 3.34375 3.3418 3.3418 3.33984 3.33984 3.33789 3.33789 3.33594 3.33594 3.33398 3.33398 3.33398 3.33203 3.33203 3.33203 3.33008 3.33008 3.33008 3.32813 3.32813 3.32813 3.32813 3.32813 3.32617 3.32617 3.32617 3.32617 3.32617 3.32617 3.32617 3.32422 3.32422 3.32422 3.32422 3.32422 3.32422 3.32422 3.32422 3.32422 3.32422 3.32617 3.32617 3.32617 3.32617 3.32617 3.32617 3.32617 3.32813 3.32813 3.32813 3.32813 3.32813 3.33008 3.33008 3.33008 3.33203 3.33203 3.33203 3.33398 3.33398 3.33594 3.33594 3.33594 3.33789 3.33789 3.33984 3.33984 3.3418 3.3418 3.34375 3.34375 3.3457 3.34766 3.34766 3.34961 3.35156 3.35156 3.35352 3.35547 3.35547 3.35742 3.35938 3.36133 3.36133 3.36328 3.36523 3.36719 3.36914 3.36914 3.37109 3.37305 3.375 3.37695 3.37891 3.38086 3.38281 3.38477 3.38672 3.38867 3.39063 3.39258 3.39453 3.39648 3.39844 3.40234 3.4043 3.40625 3.4082 3.41016 3.41211 3.41602 3.41797 3.41992 3.42188 3.42578 3.42773 3.42969 3.43359 3.43555 3.4375 3.44141 3.44336 3.44727 3.44922 3.45313 3.45508 3.45898 3.46094 3.46484 3.4668 3.4707 3.47266 3.47656 3.47852 3.48242 3.48633 3.48828 3.49219 3.49609 3.49805 3.50195 3.50586 3.50977 3.51172 3.51563 3.51953 3.52344 3.52734 3.5293 3.5332 3.53711 3.54102 3.54492 3.54883 3.55273 3.55664 3.54492 3.51953 3.49414 3.4668 3.44336 3.41797 3.39453 3.37109 3.34766 3.32422 3.30078 3.2793 3.25781 3.25 3.25391 3.25781 3.28125 3.30469 46.5313 46.5625 46.625 46.6563 46.7188 46.75 46.8125 46.8438 46.9063 46.9375 47 47.0313 47.0938 47.125 47.1875 47.2188 47.2813 47.3125 47.375 47.4375 47.4688 47.5313 47.5938 47.625 47.6875 47.75 47.7813 47.8438
5.4375 5.42969 5.42578 5.4375 5.45313 5.46875 5.48438 5.5 5.51563 5.53125 5.55078 5.56641 5.58594 5.60156 5.61719 5.63672 54.125 54.0313 53.9688 53.875 53.8125 53.7188 53.6563 53.5625 53.4688 53.4063 53.3125 53.25 53.1563 53.0938 53.0313 52.9375 52.875 52.7813 52.7188 52.625 52.5625 52.4688 52.4063 52.3438 52.25 52.1875 52.0938 52.0313 51.9688 51.875 51.8125 51.75 51.6563 51.5938 51.5313 51.4375 51.375 51.3125 51.2188 51.1563 51.0938 51.0313 50.9375 50.875 50.8125 50.75 50.6563 50.5938 50.5313 50.4688 50.4063 50.3125 50.25 50.1875 50.125 50.0625 3.33984 3.31836 3.29688 3.28906 3.28516 3.2832 3.29492 3.3125 3.33008 3.34766 3.36523 3.38477 3.40234 3.42188 3.44141 3.46094 3.48047 3.5 3.52148 3.54102 3.5625 3.58398 3.58398 3.58203 3.57813 3.57422 3.57031 3.56641 3.56445 3.56055 3.55664 3.55273 3.55078 3.54688 3.54297 3.54102 3.53711 3.5332 3.53125 3.52734 3.52344 3.52148 3.51758 3.51563 3.51172 3.50781 3.50586 3.50195 3.5 3.49609 3.49414 3.49023 3.48828 3.48438 3.48242 3.47852 3.47656 3.47266 3.4707 3.46875 3.46484 3.46289 3.45898 3.45703 3.45508 3.45117 3.44922 3.44727 3.44336 3.44141 3.43945 3.4375 3.43359 3.43164 3.42969 3.42773 3.42578 3.42188 3.41992 3.41797 3.41602 3.41406 3.41211 3.41016 3.40625 3.4043 3.40234 3.40039 3.39844 3.39648 3.39453 3.39258 3.39063 3.38867 3.38672 3.38477 3.38281 3.38281 3.38086 3.37891 3.37695 3.375 3.37305 3.37109 3.37109 3.36914 3.36719 3.36523 3.36328 3.36328 3.36133 3.35938 3.35938 3.35742 3.35547 3.35352 3.35352 3.35156 3.35156 3.34961 3.34766 3.34766 3.3457 3.3457 3.34375 3.34375 3.3418 3.3418 3.33984 3.33984 3.33789 3.33789 3.33789 3.33594 3.33594 3.33398 3.33398 3.33398 3.33203 3.33203 3.33203 3.33203 3.33008 3.33008 3.33008 3.33008 3.33008 3.32813 3.32813 3.32813 3.32813 3.32813 3.32813 3.32813 3.32813 3.32813 3.32617 3.32617 3.32617 3.32617 3.32813 3.32813 3.32813 3.32813 3.32813 3.32813 3.32813 3.32813 3.32813 3.33008 3.33008 3.33008 3.33008 3.33008 3.33203 3.33203 3.33203 3.33398 3.33398 3.33398 3.33594 3.33594 3.33594 3.33789 3.33789 3.33984 3.33984 3.33984 3.3418 3.3418 3.34375 3.3457 3.3457 3.34766 3.34766 3.34961 3.34961 3.35156 3.35352 3.35352 3.35547 3.35742 3.35938 3.35938 3.36133 3.36328 3.36523 3.36523 3.36719 3.36914 3.37109 3.37305 3.375 3.37695 3.37695 3.37891 3.38086 3.38281 3.38477 3.38672 3.38867 3.39063 3.39258 3.39453 3.39648 3.40039 3.40234 3.4043 3.40625 3.4082 3.41016 3.41406 3.41602 3.41797 3.41992 3.42188 3.42578 3.42773 3.42969 3.43359 3.43555 3.4375 3.44141 3.44336 3.44727 3.44922 3.45117 3.45508 3.45703 3.46094 3.46289 3.4668 3.46875 3.47266 3.47656 3.47852 3.48242 3.48438 3.48828 3.49219 3.49414 3.49805 3.50195 3.50391 3.50781 3.51172 3.51563 3.51953 3.52148 3.52539 3.5293 3.5332 3.53711 3.54102 3.54297 3.54688 3.55078 3.55469 3.55859 3.54492 3.51758 3.49219 3.4668 3.44141 3.41797 3.39258 3.36914 3.3457 3.32227 3.30078 3.2793 3.25586 3.25391 3.25781 3.26172 3.28516 3.31055 45.9375 45.9688 46 46.0625 46.0938 46.1563 46.1875 46.25 46.2813 46.3125 46.375 46.4063 46.4688 46.5 46.5625 46.625 46.6563 46.7188 46.75 46.8125 46.8438 46.9063 46.9688 47 47.0625 47.125 47.1563 47.2188
5.44141 5.43359 5.42969 5.43359 5.44922 5.46484 5.48047 5.49609 5.51563 5.53125 5.54688 5.5625 5.58203 5.59766 5.61719 5.63281 53.4375 53.3438 53.2813 53.1875 53.125 53.0313 52.9375 52.875 52.8125 52.7188 52.6563 52.5625 52.5 52.4063 52.3438 52.25 52.1875 52.0938 52.0313 51.9688 51.875 51.8125 51.7188 51.6563 51.5938 51.5 51.4375 51.375 51.2813 51.2188 51.1563 51.0625 51 50.9375 50.8438 50.7813 50.7188 50.6563 50.5625 50.5 50.4375 50.375 50.2813 50.2188 50.1563 50.0938 50.0313 49.9375 49.875 49.8125 49.75 49.6875 49.625 49.5313 49.4688 49.4063 49.3438 3.32617 3.30273 3.29102 3.28906 3.28516 3.29297 3.31055 3.32813 3.3457 3.36328 3.38281 3.40039 3.41992 3.43945 3.45898 3.47852 3.49805 3.51953 3.53906 3.56055 3.58203 3.58789 3.58398 3.58008 3.57617 3.57422 3.57031 3.56641 3.5625 3.56055 3.55664 3.55273 3.54883 3.54688 3.54297 3.53906 3.53711 3.5332 3.5293 3.52734 3.52344 3.51953 3.51758 3.51367 3.51172 3.50781 3.50586 3.50195 3.5 3.49609 3.49414 3.49023 3.48828 3.48438 3.48242 3.47852 3.47656 3.47266 3.4707 3.46875 3.46484 3.46289 3.45898 3.45703 3.45508 3.45117 3.44922 3.44727 3.44336 3.44141 3.43945 3.4375 3.43359 3.43164 3.42969 3.42773 3.42578 3.42188 3.41992 3.41797 3.41602 3.41406 3.41211 3.41016 3.4082 3.40625 3.4043 3.40234 3.39844 3.39648 3.39453 3.39258 3.39258 3.39063 3.38867 3.38672 3.38477 3.38281 3.38086 3.37891 3.37695 3.375 3.375 3.37305 3.37109 3.36914 3.36719 3.36719 3.36523 3.36328 3.36133 3.36133 3.35938 3.35742 3.35742 3.35547 3.35352 3.35352 3.35156 3.35156 3.34961 3.34961 3.34766 3.3457 3.3457 3.34375 3.34375 3.3418 3.3418 3.3418 3.33984 3.33984 3.33789 3.33789 3.33789 3.33594 3.33594 3.33594 3.33398 3.33398 3.33398 3.33398 3.33203 3.33203 3.33203 3.33203 3.33203 3.33008 3.33008 3.33008 3.33008 3.33008 3.33008 3.33008 3.33008 3.33008 3.33008 3.33008 3.33008 3.33008 3.33008 3.33008 3.33008 3.33008 3.33008 3.33008 3.33008 3.33203 3.33203 3.33203 3.33203 3.33203 3.33398 3.33398 3.33398 3.33398 3.33594 3.33594 3.33594 3.33789 3.33789 3.33789 3.33984 3.33984 3.3418 3.3418 3.34375 3.34375 3.3457 3.3457 3.34766 3.34766 3.34961 3.34961 3.35156 3.35352 3.35352 3.35547 3.35742 3.35742 3.35938 3.36133 3.36133 3.36328 3.36523 3.36719 3.36914 3.36914 3.37109 3.37305 3.375 3.37695 3.37891 3.38086 3.38281 3.38477 3.38672 3.38672 3.38867 3.39258 3.39453 3.39648 3.39844 3.40039 3.40234 3.4043 3.40625 3.4082 3.41016 3.41406 3.41602 3.41797 3.41992 3.42188 3.42578 3.42773 3.42969 3.43359 3.43555 3.4375 3.44141 3.44336 3.44531 3.44922 3.45117 3.45508 3.45703 3.46094 3.46289 3.4668 3.46875 3.47266 3.47461 3.47852 3.48242 3.48438 3.48828 3.49023 3.49414 3.49805 3.5 3.50391 3.50781 3.51172 3.51367 3.51758 3.52148 3.52539 3.52734 3.53125 3.53516 3.53906 3.54297 3.54688 3.55078 3.55469 3.55859 3.5625 3.54297 3.51758 3.49219 3.4668 3.44141 3.41602 3.39258 3.36914 3.3457 3.32227 3.30078 3.27734 3.25586 3.25586 3.25977 3.26758 3.29102 45.2813 45.3438 45.375 45.4063 45.4688 45.5 45.5625 45.5938 45.625 45.6875 45.7188 45.7813 45.8125 45.875 45.9063 45.9688 46 46.0625 46.0938 46.1563 46.2188 46.25 46.3125 46.3438 46.4063 46.4688 46.5 46.5625 46.5938
5.44531 5.44141 5.43359 5.42969 5.44531 5.46094 5.47656 5.49609 5.51172 5.52734 5.54297 5.5625 5.57813 5.59766 5.61328 5.63281 52.75 52.6563 52.5938 52.5 52.4375 52.3438 52.2813 52.2188 52.125 52.0625 51.9688 51.9063 51.8125 51.75 51.6875 51.5938 51.5313 51.4375 51.375 51.3125 51.2188 51.1563 51.0625 51 50.9375 50.8438 50.7813 50.7188 50.6563 50.5625 50.5 50.4375 50.3438 50.2813 50.2188 50.1563 50.0625 50 49.9375 49.875 49.7813 49.7188 49.6563 49.5938 49.5313 49.4375 49.375 49.3125 49.25 49.1875 49.125 49.0625 48.9688 48.9063 48.8438 48.7813 48.7188 3.33203 3.31055 3.29492 3.29102 3.28711 3.29102 3.30859 3.32617 3.34375 3.36133 3.37891 3.39844 3.41797 3.4375 3.45703 3.47656 3.49609 3.51563 3.53711 3.55859 3.58008 3.58984 3.58594 3.58398 3.58008 3.57617 3.57227 3.56836 3.56641 3.5625 3.55859 3.55469 3.55273 3.54883 3.54492 3.54297 3.53906 3.53516 3.5332 3.5293 3.52539 3.52344 3.51953 3.51758 3.51367 3.51172 3.50781 3.50391 3.50195 3.49805 3.49609 3.49219 3.49023 3.48633 3.48438 3.48242 3.47852 3.47656 3.47266 3.4707 3.4668 3.46484 3.46289 3.45898 3.45703 3.45508 3.45117 3.44922 3.44727 3.44531 3.44141 3.43945 3.4375 3.43555 3.43164 3.42969 3.42773 3.42578 3.42383 3.41992 3.41797 3.41602 3.41406 3.41211 3.41016 3.4082 3.40625 3.4043 3.40234 3.40039 3.39844 3.39648 3.39453 3.39258 3.39063 3.38867 3.38672 3.38477 3.38281 3.38086 3.37891 3.37891 3.37695 3.375 3.37305 3.37109 3.37109 3.36914 3.36719 3.36523 3.36523 3.36328 3.36133 3.36133 3.35938 3.35742 3.35742 3.35547 3.35352 3.35352 3.35156 3.35156 3.34961 3.34961 3.34766 3.34766 3.3457 3.3457 3.34375 3.34375 3.3418 3.3418 3.3418 3.33984 3.33984 3.33984 3.33789 3.33789 3.33789 3.33594 3.33594 3.33594 3.33594 3.33398 3.33398 3.33398 3.33398 3.33398 3.33203 3.33203 3.33203 3.33203 3.33203 3.33203 3.33203 3.33203 3.33203 3.33203 3.33203 3.33203 3.33203 3.33203 3.33203 3.33203 3.33203 3.33203 3.33398 3.33398 3.33398 3.33398 3.33398 3.33594 3.33594 3.33594 3.33594 3.33789 3.33789 3.33789 3.33984 3.33984 3.33984 3.3418 3.3418 3.34375 3.34375 3.34375 3.3457 3.3457 3.34766 3.34766 3.34961 3.35156 3.35156 3.35352 3.35352 3.35547 3.35742 3.35742 3.35938 3.36133 3.36133 3.36328 3.36523 3.36523 3.36719 3.36914 3.37109 3.37305 3.37305 3.375 3.37695 3.37891 3.38086 3.38281 3.38477 3.38672 3.38867 3.39063 3.39258 3.39453 3.39648 3.39844 3.40039 3.40234 3.4043 3.40625 3.4082 3.41211 3.41406 3.41602 3.41797 3.41992 3.42383 3.42578 3.42773 3.42969 3.43359 3.43555 3.4375 3.44141 3.44336 3.44531 3.44922 3.45117 3.45508 3.45703 3.46094 3.46289 3.4668 3.46875 3.47266 3.47461 3.47852 3.48047 3.48438 3.48633 3.49023 3.49414 3.49609 3.5 3.50391 3.50586 3.50977 3.51367 3.51758 3.51953 3.52344 3.52734 3.53125 3.53516 3.53906 3.54102 3.54492 3.54883 3.55273 3.55664 3.56055 3.56445 3.54297 3.51758 3.49023 3.46484 3.43945 3.41602 3.39258 3.36719 3.34375 3.32227 3.29883 3.27734 3.25586 3.25781 3.26172 3.27344 3.29688 44.7188 44.75 44.7813 44.8438 44.875 44.9375 44.9688 45 45.0625 45.0938 45.1563 45.1875 45.25 45.2813 45.3438 45.375 45.4375 45.4688 45.5313 45.5625 45.625 45.6563 45.7188 45.75 45.8125 45.875 45.9063 45.9688 46.0313
5.45313 5.44531 5.4375 5.42969 5.44531 5.46094 5.47656 5.49219 5.50781 5.52344 5.54297 5.55859 5.57422 5.59375 5.60938 5.62891 5.64453 52 51.9375 51.8438 51.7813 51.7188 51.625 51.5625 51.4688 51.4063 51.3125 51.25 51.1875 51.0938 51.0313 50.9375 50.875 50.8125 50.7188 50.6563 50.5938 50.5 50.4375 50.375 50.2813 50.2188 50.1563 50.0625 50 49.9375 49.875 49.7813 49.7188 49.6563 49.5938 49.5 49.4375 49.375 49.3125 49.25 49.1563 49.0938 49.0313 48.9688 48.9063 48.8438 48.75 48.6875 48.625 48.5625 48.5 48.4375 48.375 48.3125 48.25 48.1875 48.0938 3.33984 3.31641 3.29688 3.29297 3.28906 3.28906 3.30664 3.32422 3.3418 3.35938 3.37695 3.39648 3.41602 3.43359 3.45313 3.47461 3.49414 3.51367 3.53516 3.55664 3.57813 3.59375 3.58984 3.58594 3.58203 3.57813 3.57617 3.57227 3.56836 3.56445 3.5625 3.55859 3.55469 3.55078 3.54883 3.54492 3.54102 3.53906 3.53516 3.53125 3.5293 3.52539 3.52344 3.51953 3.51563 3.51367 3.50977 3.50781 3.50391 3.50195 3.49805 3.49609 3.49219 3.49023 3.48633 3.48438 3.48047 3.47852 3.47656 3.47266 3.4707 3.4668 3.46484 3.46289 3.45898 3.45703 3.45508 3.45117 3.44922 3.44727 3.44531 3.44141 3.43945 3.4375 3.43555 3.43164 3.42969 3.42773 3.42578 3.42383 3.42188 3.41992 3.41602 3.41406 3.41211 3.41016 3.4082 3.40625 3.4043 3.40234 3.40039 3.39844 3.39648 3.39453 3.39258 3.39063 3.38867 3.38672 3.38672 3.38477 3.38281 3.38086 3.37891 3.37695 3.375 3.375 3.37305 3.37109 3.36914 3.36914 3.36719 3.36523 3.36523 3.36328 3.36133 3.36133 3.35938 3.35742 3.35742 3.35547 3.35547 3.35352 3.35156 3.35156 3.34961 3.34961 3.34766 3.34766 3.3457 3.3457 3.3457 3.34375 3.34375 3.3418 3.3418 3.3418 3.33984 3.33984 3.33984 3.33984 3.33789 3.33789 3.33789 3.33789 3.33594 3.33594 3.33594 3.33594 3.33594 3.33594 3.33398 3.33398 3.33398 3.33398 3.33398 3.33398 3.33398 3.33398 3.33398 3.33398 3.33398 3.33398 3.33398 3.33398 3.33594 3.33594 3.33594 3.33594 3.33594 3.33594 3.33789 3.33789 3.33789 3.33789 3.33984 3.33984 3.33984 3.33984 3.3418 3.3418 3.34375 3.34375 3.34375 3.3457 3.3457 3.34766 3.34766 3.34961 3.34961 3.35156 3.35156 3.35352 3.35352 3.35547 3.35742 3.35742 3.35938 3.35938 3.36133 3.36328 3.36523 3.36523 3.36719 3.36914 3.37109 3.37109 3.37305 3.375 3.37695 3.37891 3.37891 3.38086 3.38281 3.38477 3.38672 3.38867 3.39063 3.39258 3.39453 3.39648 3.39844 3.40039 3.40234 3.4043 3.40625 3.41016 3.41211 3.41406 3.41602 3.41797 3.41992 3.42383 3.42578 3.42773 3.42969 3.43359 3.43555 3.4375 3.44141 3.44336 3.44531 3.44922 3.45117 3.45508 3.45703 3.45898 3.46289 3.46484 3.46875 3.4707 3.47461 3.47852 3.48047 3.48438 3.48633 3.49023 3.49219 3.49609 3.5 3.50195 3.50586 3.50977 3.51367 3.51563 3.51953 3.52344 3.52734 3.5293 3.5332 3.53711 3.54102 3.54492 3.54883 3.55273 3.55664 3.56055 3.5625 3.56641 3.54297 3.51563 3.49023 3.46484 3.43945 3.41602 3.39063 3.36719 3.34375 3.32031 3.29883 3.27539 3.25781 3.26172 3.26563 3.2793 3.30273 44.1563 44.1875 44.2188 44.2813 44.3125 44.375 44.4063 44.4375 44.5 44.5313 44.5938 44.625 44.6563 44.7188 44.75 44.8125 44.8438 44.9063 44.9375 45 45.0313 45.0938 45.1563 45.1875 45.25 45.2813 45.3438 45.375 45.4375
5.45703 5.44922 5.44141 5.43359 5.44141 5.45703 5.47266 5.48828 5.50781 5.52344 5.53906 5.55469 5.57422 5.58984 5.60938 5.625 5.64453 51.375 51.2813 51.2188 51.125 51.0625 51 50.9063 50.8438 50.75 50.6875 50.625 50.5313 50.4688 50.4063 50.3125 50.25 50.1875 50.0938 50.0313 49.9688 49.875 49.8125 49.75 49.6563 49.5938 49.5313 49.4688 49.375 49.3125 49.25 49.1875 49.0938 49.0313 48.9688 48.9063 48.8438 48.75 48.6875 48.625 48.5625 48.5 48.4375 48.3438 48.2813 48.2188 48.1563 48.0938 48.0313 47.9688 47.9063 47.8438 47.7813 47.7188 47.625 47.5625 47.5 3.3457 3.32422 3.30078 3.29688 3.29297 3.28906 3.30469 3.32227 3.33984 3.35742 3.375 3.39453 3.41406 3.43164 3.45117 3.4707 3.49219 3.51172 3.5332 3.55469 3.57422 3.5957 3.5918 3.58789 3.58594 3.58203 3.57813 3.57422 3.57227 3.56836 3.56445 3.56055 3.55859 3.55469 3.55078 3.54883 3.54492 3.54102 3.53906 3.53516 3.53125 3.5293 3.52539 3.52148 3.51953 3.51563 3.51367 3.50977 3.50781 3.50391 3.50195 3.49805 3.49609 3.49219 3.49023 3.48633 3.48438 3.48047 3.47852 3.47656 3.47266 3.4707 3.4668 3.46484 3.46289 3.45898 3.45703 3.45508 3.45117 3.44922 3.44727 3.44531 3.44141 3.43945 3.4375 3.43555 3.43359 3.42969 3.42773 3.42578 3.42383 3.42188 3.41992 3.41797 3.41602 3.41211 3.41016 3.4082 3.40625 3.4043 3.40234 3.40039 3.39844 3.39648 3.39453 3.39453 3.39258 3.39063 3.38867 3.38672 3.38477 3.38281 3.38086 3.38086 3.37891 3.37695 3.375 3.37305 3.37305 3.37109 3.36914 3.36719 3.36719 3.36523 3.36328 3.36328 3.36133 3.36133 3.35938 3.35742 3.35742 3.35547 3.35547 3.35352 3.35352 3.35156 3.35156 3.34961 3.34961 3.34766 3.34766 3.3457 3.3457 3.3457 3.34375 3.34375 3.34375 3.3418 3.3418 3.3418 3.33984 3.33984 3.33984 3.33984 3.33984 3.33789 3.33789 3.33789 3.33789 3.33789 3.33789 3.33789 3.33789 3.33594 3.33594 3.33594 3.33594 3.33594 3.33594 3.33594 3.33594 3.33789 3.33789 3.33789 3.33789 3.33789 3.33789 3.33789 3.33789 3.33984 3.33984 3.33984 3.33984 3.3418 3.3418 3.3418 3.3418 3.34375 3.34375 3.34375 3.3457 3.3457 3.34766 3.34766 3.34766 3.34961 3.34961 3.35156 3.35156 3.35352 3.35352 3.35547 3.35742 3.35742 3.35938 3.35938 3.36133 3.36328 3.36328 3.36523 3.36719 3.36914 3.36914 3.37109 3.37305 3.375 3.375 3.37695 3.37891 3.38086 3.38281 3.38477 3.38672 3.38867 3.38867 3.39063 3.39258 3.39453 3.39648 3.39844 3.40039 3.40234 3.40625 3.4082 3.41016 3.41211 3.41406 3.41602 3.41797 3.42188 3.42383 3.42578 3.42773 3.42969 3.43359 3.43555 3.4375 3.44141 3.44336 3.44531 3.44922 3.45117 3.45508 3.45703 3.45898 3.46289 3.46484 3.46875 3.4707 3.47461 3.47656 3.48047 3.48242 3.48633 3.49023 3.49219 3.49609 3.5 3.50195 3.50586 3.50977 3.51172 3.51563 3.51953 3.52344 3.52539 3.5293 3.5332 3.53711 3.54102 3.54297 3.54688 3.55078 3.55469 3.55859 3.5625 3.56641 3.56836 3.54102 3.51563 3.49023 3.46484 3.43945 3.41406 3.39063 3.36719 3.34375 3.32031 3.29688 3.27539 3.25977 3.26367 3.26758 3.2832 3.30859 43.5938 43.6563 43.6875 43.7188 43.7813 43.8125 43.8438 43.9063 43.9375 43.9688 44.0313 44.0625 44.125 44.1563 44.2188 44.25 44.3125 44.3438 44.4063 44.4375 44.5 44.5313 44.5938 44.625 44.6875 44.7188 44.7813 44.8125 44.875
5.45703 5.45313 5.44531 5.44141 5.4375 5.45313 5.47266 5.48828 5.50391 5.51953 5.53516 5.55469 5.57031 5.58984 5.60547 5.625 5.64063 50.75 50.6563 50.5938 50.5 50.4375 50.375 50.2813 50.2188 50.1563 50.0625 50 49.9375 49.8438 49.7813 49.7188 49.625 49.5625 49.5 49.4063 49.3438 49.2813 49.2188 49.125 49.0625 49 48.9375 48.8438 48.7813 48.7188 48.6563 48.5625 48.5 48.4375 48.375 48.3125 48.2188 48.1563 48.0938 48.0313 47.9688 47.9063 47.8438 47.7813 47.6875 47.625 47.5625 47.5 47.4375 47.375 47.3125 47.25 47.1875 47.125 47.0625 47 46.9375 3.35352 3.33008 3.30859 3.29883 3.29492 3.29102 3.30273 3.32031 3.33789 3.35547 3.37305 3.39258 3.41211 3.42969 3.44922 3.46875 3.49023 3.50977 3.53125 3.55078 3.57227 3.59375 3.5957 3.5918 3.58789 3.58398 3.58203 3.57813 3.57422 3.57031 3.56641 3.56445 3.56055 3.55664 3.55469 3.55078 3.54688 3.54492 3.54102 3.53711 3.53516 3.53125 3.52734 3.52539 3.52148 3.51953 3.51563 3.51367 3.50977 3.50781 3.50391 3.50195 3.49805 3.49609 3.49219 3.49023 3.48633 3.48438 3.48047 3.47852 3.47656 3.47266 3.4707 3.4668 3.46484 3.46289 3.45898 3.45703 3.45508 3.45313 3.44922 3.44727 3.44531 3.44336 3.43945 3.4375 3.43555 3.43359 3.43164 3.42773 3.42578 3.42383 3.42188 3.41992 3.41797 3.41602 3.41406 3.41211 3.41016 3.4082 3.40625 3.4043 3.40234 3.40039 3.39844 3.39648 3.39453 3.39258 3.39063 3.38867 3.38672 3.38477 3.38477 3.38281 3.38086 3.37891 3.37695 3.37695 3.375 3.37305 3.37109 3.37109 3.36914 3.36719 3.36719 3.36523 3.36328 3.36328 3.36133 3.36133 3.35938 3.35938 3.35742 3.35547 3.35547 3.35352 3.35352 3.35156 3.35156 3.35156 3.34961 3.34961 3.34766 3.34766 3.34766 3.3457 3.3457 3.3457 3.34375 3.34375 3.34375 3.34375 3.3418 3.3418 3.3418 3.3418 3.33984 3.33984 3.33984 3.33984 3.33984 3.33984 3.33984 3.33984 3.33984 3.33984 3.33984 3.33984 3.33984 3.33984 3.33984 3.33984 3.33984 3.33984 3.33984 3.33984 3.33984 3.3418 3.3418 3.3418 3.3418 3.3418 3.34375 3.34375 3.34375 3.34375 3.3457 3.3457 3.3457 3.34766 3.34766 3.34766 3.34961 3.34961 3.35156 3.35156 3.35352 3.35352 3.35547 3.35547 3.35742 3.35742 3.35938 3.35938 3.36133 3.36328 3.36328 3.36523 3.36719 3.36719 3.36914 3.37109 3.37305 3.37305 3.375 3.37695 3.37891 3.38086 3.38086 3.38281 3.38477 3.38672 3.38867 3.39063 3.39258 3.39453 3.39648 3.39844 3.40039 3.40234 3.4043 3.40625 3.4082 3.41016 3.41211 3.41406 3.41602 3.41992 3.42188 3.42383 3.42578 3.42773 3.43164 3.43359 3.43555 3.4375 3.44141 3.44336 3.44531 3.44922 3.45117 3.45313 3.45703 3.45898 3.46289 3.46484 3.46875 3.4707 3.47461 3.47656 3.48047 3.48242 3.48633 3.48828 3.49219 3.49609 3.49805 3.50195 3.50586 3.50781 3.51172 3.51563 3.51758 3.52148 3.52539 3.5293 3.5332 3.53516 3.53906 3.54297 3.54688 3.55078 3.55469 3.55859 3.5625 3.56445 3.56836 3.56836 3.54102 3.51367 3.48828 3.46289 3.4375 3.41406 3.38867 3.36523 3.3418 3.32031 3.29688 3.27539 3.26172 3.26563 3.26953 3.28906 3.3125 43.0625 43.0938 43.1563 43.1875 43.2188 43.2813 43.3125 43.3438 43.4063 43.4375 43.5 43.5313 43.5625 43.625 43.6563 43.7188 43.75 43.8125 43.8438 43.9063 43.9375 44 44.0313 44.0938 44.125 44.1875 44.2188 44.2813 44.3125
5.45703 5.45703 5.45313 5.44531 5.4375 5.45313 5.46875 5.48438 5.5 5.51953 5.53516 5.55078 5.56641 5.58594 5.60156 5.62109 5.63672 5.65625 50.0625 49.9688 49.9063 49.8438 49.75 49.6875 49.625 49.5313 49.4688 49.4063 49.3125 49.25 49.1875 49.0938 49.0313 48.9688 48.9063 48.8125 48.75 48.6875 48.5938 48.5313 48.4688 48.4063 48.3438 48.25 48.1875 48.125 48.0625 48 47.9063 47.8438 47.7813 47.7188 47.6563 47.5938 47.5313 47.4375 47.375 47.3125 47.25 47.1875 47.125 47.0625 47 46.9375 46.875 46.8125 46.75 46.6875 46.625 46.5625 46.5 46.4375 46.375 46.3125 3.33789 3.31445 3.30078 3.29883 3.29492 3.30078 3.31836 3.33594 3.35352 3.37109 3.39063 3.4082 3.42773 3.44727 3.4668 3.48828 3.50781 3.5293 3.54883 3.57031 3.5918 3.59766 3.59375 3.5918 3.58789 3.58398 3.58008 3.57617 3.57422 3.57031 3.56641 3.5625 3.56055 3.55664 3.55273 3.55078 3.54688 3.54297 3.54102 3.53711 3.5332 3.53125 3.52734 3.52539 3.52148 3.51953 3.51563 3.51172 3.50977 3.50586 3.50391 3.5 3.49805 3.49414 3.49219 3.49023 3.48633 3.48438 3.48047 3.47852 3.47656 3.47266 3.4707 3.4668 3.46484 3.46289 3.45898 3.45703 3.45508 3.45313 3.44922 3.44727 3.44531 3.44336 3.43945 3.4375 3.43555 3.43359 3.43164 3.42969 3.42773 3.42383 3.42188 3.41992 3.41797 3.41602 3.41406 3.41211 3.41016 3.4082 3.40625 3.4043 3.40234 3.40039 3.39844 3.39648 3.39453 3.39258 3.39258 3.39063 3.38867 3.38672 3.38477 3.38281 3.38281 3.38086 3.37891 3.37695 3.37695 3.375 3.37305 3.37109 3.37109 3.36914 3.36719 3.36719 3.36523 3.36523 3.36328 3.36133 3.36133 3.35938 3.35938 3.35742 3.35742 3.35547 3.35547 3.35352 3.35352 3.35156 3.35156 3.35156 3.34961 3.34961 3.34961 3.34766 3.34766 3.34766 3.3457 3.3457 3.3457 3.3457 3.34375 3.34375 3.34375 3.34375 3.34375 3.3418 3.3418 3.3418 3.3418 3.3418 3.3418 3.3418 3.3418 3.3418 3.3418 3.3418 3.3418 3.3418 3.3418 3.3418 3.3418 3.3418 3.3418 3.34375 3.34375 3.34375 3.34375 3.34375 3.3457 3.3457 3.3457 3.3457 3.34766 3.34766 3.34766 3.34961 3.34961 3.34961 3.35156 3.35156 3.35352 3.35352 3.35547 3.35547 3.35742 3.35742 3.35938 3.35938 3.36133 3.36133 3.36328 3.36328 3.36523 3.36719 3.36719 3.36914 3.37109 3.37109 3.37305 3.375 3.37695 3.37695 3.37891 3.38086 3.38281 3.38477 3.38672 3.38672 3.38867 3.39063 3.39258 3.39453 3.39648 3.39844 3.40039 3.40234 3.4043 3.40625 3.4082 3.41016 3.41211 3.41406 3.41797 3.41992 3.42188 3.42383 3.42578 3.42773 3.43164 3.43359 3.43555 3.4375 3.44141 3.44336 3.44531 3.44922 3.45117 3.45313 3.45703 3.45898 3.46289 3.46484 3.46875 3.4707 3.47461 3.47656 3.48047 3.48242 3.48633 3.48828 3.49219 3.49414 3.49805 3.50195 3.50391 3.50781 3.51172 3.51367 3.51758 3.52148 3.52539 3.52734 3.53125 3.53516 3.53906 3.54297 3.54688 3.54883 3.55273 3.55664 3.56055 3.56445 3.56836 3.57227 3.56641 3.54102 3.51367 3.48828 3.46289 3.4375 3.41211 3.38867 3.36523 3.3418 3.31836 3.29688 3.27344 3.26563 3.26953 3.27344 3.29492 3.31836 42.5313 42.5938 42.625 42.6563 42.7188 42.75 42.7813 42.8438 42.875 42.9063 42.9688 43 43.0313 43.0938 43.125 43.1875 43.2188 43.2813 43.3125 43.375 43.4063 43.4688 43.5 43.5625 43.5938 43.6563 43.6875 43.75 43.7813
5.45313 5.46484 5.45703 5.44922 5.44141 5.44922 5.46484 5.48047 5.5 5.51563 5.53125 5.54688 5.56641 5.58203 5.60156 5.61719 5.63672 5.65234 49.4688 49.375 49.3125 49.25 49.1563 49.0938 49.0313 48.9375 48.875 48.8125 48.7188 48.6563 48.5938 48.5313 48.4375 48.375 48.3125 48.25 48.1563 48.0938 48.0313 47.9688 47.9063 47.8125 47.75 47.6875 47.625 47.5625 47.4688 47.4063 47.3438 47.2813 47.2188 47.1563 47.0938 47 46.9375 46.875 46.8125 46.75 46.6875 46.625 46.5625 46.5 46.4375 46.375 46.3125 46.25 46.1875 46.125 46.0625 46 45.9375 45.875 45.8125 45.75 3.34375 3.32227 3.30469 3.30078 3.29688 3.29883 3.31641 3.33398 3.35156 3.36914 3.38867 3.40625 3.42578 3.44531 3.46484 3.48633 3.50586 3.52539 3.54688 3.56836 3.58984 3.60156 3.59766 3.59375 3.58984 3.58594 3.58398 3.58008 3.57617 3.57227 3.57031 3.56641 3.5625 3.56055 3.55664 3.55273 3.55078 3.54688 3.54297 3.54102 3.53711 3.5332 3.53125 3.52734 3.52539 3.52148 3.51758 3.51563 3.51172 3.50977 3.50586 3.50391 3.5 3.49805 3.49414 3.49219 3.49023 3.48633 3.48438 3.48047 3.47852 3.47656 3.47266 3.4707 3.46875 3.46484 3.46289 3.46094 3.45703 3.45508 3.45313 3.45117 3.44727 3.44531 3.44336 3.44141 3.4375 3.43555 3.43359 3.43164 3.42969 3.42773 3.42578 3.42383 3.41992 3.41797 3.41602 3.41406 3.41211 3.41016 3.4082 3.40625 3.4043 3.40234 3.40039 3.40039 3.39844 3.39648 3.39453 3.39258 3.39063 3.38867 3.38672 3.38672 3.38477 3.38281 3.38086 3.38086 3.37891 3.37695 3.375 3.375 3.37305 3.37109 3.37109 3.36914 3.36719 3.36719 3.36523 3.36523 3.36328 3.36328 3.36133 3.36133 3.35938 3.35938 3.35742 3.35742 3.35547 3.35547 3.35352 3.35352 3.35352 3.35156 3.35156 3.35156 3.34961 3.34961 3.34961 3.34766 3.34766 3.34766 3.34766 3.3457 3.3457 3.3457 3.3457 3.3457 3.3457 3.3457 3.34375 3.34375 3.34375 3.34375 3.34375 3.34375 3.34375 3.34375 3.34375 3.34375 3.34375 3.34375 3.3457 3.3457 3.3457 3.3457 3.3457 3.3457 3.3457 3.34766 3.34766 3.34766 3.34766 3.34961 3.34961 3.34961 3.35156 3.35156 3.35156 3.35352 3.35352 3.35547 3.35547 3.35547 3.35742 3.35742 3.35938 3.35938 3.36133 3.36133 3.36328 3.36523 3.36523 3.36719 3.36719 3.36914 3.37109 3.37109 3.37305 3.375 3.375 3.37695 3.37891 3.38086 3.38281 3.38281 3.38477 3.38672 3.38867 3.39063 3.39258 3.39453 3.39648 3.39648 3.39844 3.40039 3.40234 3.4043 3.40625 3.4082 3.41211 3.41406 3.41602 3.41797 3.41992 3.42188 3.42383 3.42578 3.42969 3.43164 3.43359 3.43555 3.43945 3.44141 3.44336 3.44531 3.44922 3.45117 3.45508 3.45703 3.45898 3.46289 3.46484 3.46875 3.4707 3.47461 3.47656 3.48047 3.48242 3.48633 3.48828 3.49219 3.49414 3.49805 3.50195 3.50391 3.50781 3.51172 3.51367 3.51758 3.52148 3.52344 3.52734 3.53125 3.53516 3.53906 3.54102 3.54492 3.54883 3.55273 3.55664 3.56055 3.56445 3.56836 3.57031 3.57422 3.56641 3.53906 3.51367 3.48828 3.46289 3.4375 3.41211 3.38867 3.36523 3.3418 3.31836 3.29492 3.27344 3.26758 3.27148 3.27734 3.30078 3.32422 42.0313 42.0625 42.125 42.1563 42.1875 42.2188 42.2813 42.3125 42.375 42.4063 42.4375 42.5 42.5313 42.5625 42.625 42.6563 42.7188 42.75 42.8125 42.8438 42.875 42.9375 42.9688 43.0313 43.0625 43.125 43.1563 43.2188 43.25
5.44922 5.46484 5.46094 5.45313 5.44922 5.44922 5.46484 5.48047 5.49609 5.51172 5.53125 5.54688 5.5625 5.58203 5.59766 5.61719 5.63281 5.65234 48.875 48.8125 48.7188 48.6563 48.5938 48.5 48.4375 48.375 48.3125 48.2188 48.1563 48.0938 48.0313 47.9375 47.875 47.8125 47.75 47.6563 47.5938 47.5313 47.4688 47.4063 47.3125 47.25 47.1875 47.125 47.0625 47 46.9063 46.8438 46.7813 46.7188 46.6563 46.5938 46.5313 46.4688 46.4063 46.3438 46.25 46.1875 46.125 46.0625 46 45.9375 45.875 45.8125 45.75 45.6875 45.625 45.5625 45.5 45.4375 45.375 45.3125 45.25 45.2188 3.35156 3.33008 3.30664 3.30273 3.30078 3.29688 3.31445 3.33203 3.34961 3.36719 3.38672 3.4043 3.42383 3.44336 3.46289 3.48242 3.50391 3.52344 3.54492 3.56641 3.58789 3.60352 3.59961 3.59766 3.59375 3.58984 3.58594 3.58203 3.58008 3.57617 3.57227 3.56836 3.56641 3.5625 3.55859 3.55664 3.55273 3.54883 3.54688 3.54297 3.53906 3.53711 3.5332 3.53125 3.52734 3.52344 3.52148 3.51758 3.51563 3.51172 3.50977 3.50586 3.50391 3.5 3.49805 3.49414 3.49219 3.49023 3.48633 3.48438 3.48047 3.47852 3.47656 3.47266 3.4707 3.46875 3.46484 3.46289 3.46094 3.45703 3.45508 3.45313 3.45117 3.44727 3.44531 3.44336 3.44141 3.43945 3.4375 3.43359 3.43164 3.42969 3.42773 3.42578 3.42383 3.42188 3.41992 3.41797 3.41602 3.41406 3.41211 3.41016 3.4082 3.40625 3.4043 3.40234 3.40039 3.39844 3.39648 3.39453 3.39453 3.39258 3.39063 3.38867 3.38672 3.38477 3.38477 3.38281 3.38086 3.37891 3.37891 3.37695 3.375 3.375 3.37305 3.37109 3.37109 3.36914 3.36914 3.36719 3.36523 3.36523 3.36328 3.36328 3.36133 3.36133 3.35938 3.35938 3.35938 3.35742 3.35742 3.35547 3.35547 3.35547 3.35352 3.35352 3.35352 3.35156 3.35156 3.35156 3.34961 3.34961 3.34961 3.34961 3.34961 3.34766 3.34766 3.34766 3.34766 3.34766 3.34766 3.34766 3.34766 3.34766 3.34766 3.34766 3.34766 3.34766 3.34766 3.34766 3.34766 3.34766 3.34766 3.34766 3.34766 3.34766 3.34766 3.34961 3.34961 3.34961 3.34961 3.34961 3.35156 3.35156 3.35156 3.35352 3.35352 3.35352 3.35547 3.35547 3.35547 3.35742 3.35742 3.35938 3.35938 3.36133 3.36133 3.36328 3.36328 3.36523 3.36523 3.36719 3.36719 3.36914 3.37109 3.37109 3.37305 3.375 3.375 3.37695 3.37891 3.38086 3.38086 3.38281 3.38477 3.38672 3.38867 3.38867 3.39063 3.39258 3.39453 3.39648 3.39844 3.40039 3.40234 3.4043 3.40625 3.4082 3.41016 3.41211 3.41406 3.41602 3.41797 3.41992 3.42188 3.42578 3.42773 3.42969 3.43164 3.43359 3.4375 3.43945 3.44141 3.44336 3.44727 3.44922 3.45117 3.45508 3.45703 3.45898 3.46289 3.46484 3.46875 3.4707 3.47266 3.47656 3.47852 3.48242 3.48633 3.48828 3.49219 3.49414 3.49805 3.5 3.50391 3.50781 3.50977 3.51367 3.51758 3.51953 3.52344 3.52734 3.53125 3.5332 3.53711 3.54102 3.54492 3.54883 3.55273 3.55469 3.55859 3.5625 3.56641 3.57031 3.57422 3.57813 3.56641 3.53906 3.51172 3.48633 3.46094 3.43555 3.41211 3.38672 3.36328 3.33984 3.31836 3.29492 3.27344 3.27148 3.27539 3.28125 3.30664 41.5 41.5313 41.5625 41.625 41.6563 41.6875 41.7188 41.7813 41.8125 41.8438 41.9063 41.9375 42 42.0313 42.0625 42.125 42.1563 42.1875 42.25 42.2813 42.3438 42.375 42.4375 42.4688 42.5313 42.5625 42.625 42.6563 42.7188 42.75
5.44922 5.46484 5.46484 5.46094 5.45313 5.44531 5.46094 5.47656 5.49219 5.51172 5.52734 5.54297 5.5625 5.57813 5.59375 5.61328 5.63281 5.64844 5.66797 48.2188 48.1563 48.0938 48.0313 47.9375 47.875 47.8125 47.75 47.6563 47.5938 47.5313 47.4688 47.375 47.3125 47.25 47.1875 47.125 47.0313 46.9688 46.9063 46.8438 46.7813 46.7188 46.625 46.5625 46.5 46.4375 46.375 46.3125 46.25 46.1875 46.125 46.0313 45.9688 45.9063 45.8438 45.7813 45.7188 45.6563 45.5938 45.5313 45.4688 45.4063 45.3438 45.2813 45.2188 45.1563 45.0938 45.0313 44.9688 44.9063 44.8438 44.7813 44.75 44.6875 3.35938 3.33594 3.31445 3.30664 3.30273 3.29883 3.3125 3.33008 3.34766 3.36523 3.38477 3.40234 3.42188 3.44141 3.46094 3.48047 3.50195 3.52148 3.54297 3.56445 3.58594 3.60742 3.60352 3.59961 3.5957 3.5918 3.58984 3.58594 3.58203 3.57813 3.57617 3.57227 3.56836 3.56641 3.5625 3.55859 3.55469 3.55273 3.54883 3.54688 3.54297 3.53906 3.53711 3.5332 3.53125 3.52734 3.52344 3.52148 3.51758 3.51563 3.51172 3.50977 3.50586 3.50391 3.5 3.49805 3.49414 3.49219 3.49023 3.48633 3.48438 3.48047 3.47852 3.47656 3.47266 3.4707 3.46875 3.46484 3.46289 3.46094 3.45898 3.45508 3.45313 3.45117 3.44922 3.44531 3.44336 3.44141 3.43945 3.4375 3.43555 3.43359 3.42969 3.42773 3.42578 3.42383 3.42188 3.41992 3.41797 3.41602 3.41406 3.41211 3.41016 3.4082 3.40625 3.4043 3.40234 3.40234 3.40039 3.39844 3.39648 3.39453 3.39258 3.39063 3.39063 3.38867 3.38672 3.38477 3.38477 3.38281 3.38086 3.37891 3.37891 3.37695 3.375 3.375 3.37305 3.37305 3.37109 3.36914 3.36914 3.36719 3.36719 3.36523 3.36523 3.36328 3.36328 3.36133 3.36133 3.35938 3.35938 3.35938 3.35742 3.35742 3.35742 3.35547 3.35547 3.35547 3.35352 3.35352 3.35352 3.35352 3.35156 3.35156 3.35156 3.35156 3.35156 3.34961 3.34961 3.34961 3.34961 3.34961 3.34961 3.34961 3.34961 3.34961 3.34961 3.34961 3.34961 3.34961 3.34961 3.34961 3.34961 3.34961 3.34961 3.35156 3.35156 3.35156 3.35156 3.35156 3.35352 3.35352 3.35352 3.35352 3.35547 3.35547 3.35547 3.35742 3.35742 3.35742 3.35938 3.35938 3.36133 3.36133 3.36328 3.36328 3.36523 3.36523 3.36719 3.36719 3.36914 3.36914 3.37109 3.37109 3.37305 3.375 3.375 3.37695 3.37891 3.37891 3.38086 3.38281 3.38477 3.38672 3.38672 3.38867 3.39063 3.39258 3.39453 3.39648 3.39648 3.39844 3.40039 3.40234 3.4043 3.40625 3.4082 3.41016 3.41211 3.41406 3.41602 3.41797 3.42188 3.42383 3.42578 3.42773 3.42969 3.43164 3.43359 3.4375 3.43945 3.44141 3.44336 3.44727 3.44922 3.45117 3.45508 3.45703 3.45898 3.46289 3.46484 3.46875 3.4707 3.47266 3.47656 3.47852 3.48242 3.48438 3.48828 3.49219 3.49414 3.49805 3.5 3.50391 3.50781 3.50977 3.51367 3.51758 3.51953 3.52344 3.52734 3.5293 3.5332 3.53711 3.54102 3.54492 3.54688 3.55078 3.55469 3.55859 3.5625 3.56641 3.57031 3.57422 3.57813 3.58203 3.56445 3.53906 3.51172 3.48633 3.46094 3.43555 3.41211 3.38672 3.36328 3.33984 3.31641 3.29492 3.27148 3.27344 3.27734 3.28711 3.31055 41 41.0625 41.0938 41.125 41.1563 41.2188 41.25 41.2813 41.3125 41.375 41.4063 41.4375 41.5 41.5313 41.5938 41.625 41.6563 41.7188 41.75 41.7813 41.8438 41.875 41.9375 41.9688 42.0313 42.0625 42.125 42.1563 42.2188 42.25
5.44531 5.46094 5.47266 5.46484 5.45703 5.44922 5.46094 5.47656 5.49219 5.50781 5.52344 5.54297 5.55859 5.57422 5.59375 5.60938 5.62891 5.64453 5.66406 47.6875 47.5938 47.5313 47.4688 47.4063 47.3125 47.25 47.1875 47.125 47.0625 46.9688 46.9063 46.8438 46.7813 46.7188 46.625 46.5625 46.5 46.4375 46.375 46.3125 46.2188 46.1563 46.0938 46.0313 45.9688 45.9063 45.8438 45.7813 45.7188 45.6563 45.5938 45.5 45.4375 45.375 45.3125 45.25 45.1875 45.125 45.0625 45 44.9375 44.875 44.8125 44.75 44.6875 44.625 44.5938 44.5313 44.4688 44.4063 44.3438 44.2813 44.2188 44.1563 44.0938 3.34375 3.32031 3.30859 3.30469 3.30273 3.31055 3.32813 3.3457 3.36328 3.38281 3.40039 3.41992 3.43945 3.45898 3.47852 3.5 3.51953 3.54102 3.5625 3.58398 3.60547 3.60547 3.60352 3.59961 3.5957 3.5918 3.58789 3.58594 3.58203 3.57813 3.57422 3.57227 3.56836 3.56445 3.5625 3.55859 3.55469 3.55273 3.54883 3.54492 3.54297 3.53906 3.53711 3.5332 3.5293 3.52734 3.52344 3.52148 3.51758 3.51563 3.51172 3.50977 3.50586 3.50391 3.5 3.49805 3.49414 3.49219 3.49023 3.48633 3.48438 3.48242 3.47852 3.47656 3.47266 3.4707 3.46875 3.4668 3.46289 3.46094 3.45898 3.45703 3.45313 3.45117 3.44922 3.44727 3.44531 3.44141 3.43945 3.4375 3.43555 3.43359 3.43164 3.42969 3.42773 3.42578 3.42383 3.42188 3.41797 3.41602 3.41602 3.41406 3.41211 3.41016 3.4082 3.40625 3.4043 3.40234 3.40039 3.39844 3.39648 3.39648 3.39453 3.39258 3.39063 3.38867 3.38867 3.38672 3.38477 3.38477 3.38281 3.38086 3.37891 3.37891 3.37695 3.37695 3.375 3.37305 3.37305 3.37109 3.37109 3.36914 3.36914 3.36719 3.36719 3.36523 3.36523 3.36328 3.36328 3.36133 3.36133 3.36133 3.35938 3.35938 3.35938 3.35742 3.35742 3.35742 3.35547 3.35547 3.35547 3.35547 3.35352 3.35352 3.35352 3.35352 3.35352 3.35352 3.35352 3.35156 3.35156 3.35156 3.35156 3.35156 3.35156 3.35156 3.35156 3.35156 3.35156 3.35156 3.35156 3.35352 3.35352 3.35352 3.35352 3.35352 3.35352 3.35547 3.35547 3.35547 3.35547 3.35547 3.35742 3.35742 3.35742 3.35938 3.35938 3.35938 3.36133 3.36133 3.36328 3.36328 3.36328 3.36523 3.36523 3.36719 3.36719 3.36914 3.36914 3.37109 3.37305 3.37305 3.375 3.375 3.37695 3.37891 3.37891 3.38086 3.38281 3.38477 3.38477 3.38672 3.38867 3.39063 3.39258 3.39258 3.39453 3.39648 3.39844 3.40039 3.40234 3.4043 3.40625 3.4082 3.41016 3.41211 3.41406 3.41602 3.41797 3.41992 3.42188 3.42383 3.42578 3.42773 3.42969 3.43359 3.43555 3.4375 3.43945 3.44141 3.44531 3.44727 3.44922 3.45313 3.45508 3.45703 3.46094 3.46289 3.46484 3.46875 3.4707 3.47461 3.47656 3.47852 3.48242 3.48438 3.48828 3.49023 3.49414 3.49805 3.5 3.50391 3.50586 3.50977 3.51367 3.51563 3.51953 3.52344 3.52539 3.5293 3.5332 3.53711 3.54102 3.54297 3.54688 3.55078 3.55469 3.55859 3.5625 3.56445 3.56836 3.57227 3.57617 3.58008 3.58398 3.56445 3.53711 3.51172 3.48633 3.46094 3.43555 3.41016 3.38672 3.36328 3.33984 3.31641 3.29492 3.27344 3.27734 3.28125 3.29297 3.31641 40.5313 40.5625 40.625 40.6563 40.6875 40.7188 40.7813 40.8125 40.8438 40.875 40.9375 40.9688 41 41.0625 41.0938 41.125 41.1875 41.2188 41.2813 41.3125 41.3438 41.4063 41.4375 41.5 41.5313 41.5938 41.625 41.6875 41.7188 41.7813
