3.4082 3.4043 3.40234 3.40039 3.39648 3.39453 3.39063 3.38867 3.38672 3.38281 3.38086 3.37891 3.375 3.37305 3.37109 3.36719 3.36523 3.36328 3.36133 3.35742 3.35547 3.35352 3.35156 3.34766 3.3457 3.34375 3.3418 3.33984 3.33789 3.33594 3.33398 3.33008 3.32813 3.32617 3.32422 3.32227 3.32031 3.31836 3.31641 3.31445 3.3125 3.31055 3.30859 3.30664 3.30469 3.30273 3.30273 3.30078 3.29883 3.29688 3.29492 3.29297 3.29102 3.29102 3.28906 3.28711 3.28516 3.28516 3.2832 3.28125 3.2793 3.2793 3.27734 3.27539 3.27539 3.27344 3.27148 3.27148 3.26953 3.26953 3.26758 3.26758 3.26563 3.26367 3.26367 3.26172 3.26172 3.26172 3.25977 3.25977 3.25781 3.25781 3.25586 3.25586 3.25586 3.25391 3.25391 3.25391 3.25195 3.25195 3.25195 3.25195 3.25 3.25 3.25 3.25 3.25 3.24805 3.24805 3.24805 3.24805 3.24805 3.24805 3.24805 3.24805 3.24805 3.24805 3.24805 3.24805 3.24805 3.24805 3.24805 3.24805 3.24805 3.24805 3.24805 3.24805 3.24805 3.25 3.25 3.25 3.25 3.25 3.25195 3.25195 3.25195 3.25195 3.25391 3.25391 3.25391 3.25586 3.25586 3.25781 3.25781 3.25781 3.25977 3.25977 3.26172 3.26172 3.26367 3.26367 3.26563 3.26563 3.26758 3.26953 3.26953 3.27148 3.27344 3.27344 3.27539 3.27734 3.27734 3.2793 3.28125 3.2832 3.2832 3.28516 3.28711 3.28906 3.29102 3.29102 3.29297 3.29492 3.29688 3.29883 3.30078 3.30273 3.30469 3.30664 3.30859 3.31055 3.3125 3.31445 3.31641 3.31836 3.32031 3.32422 3.32617 3.32813 3.33008 3.33203 3.33398 3.33789 3.33984 3.3418 3.34375 3.34766 3.34961 3.35156 3.35547 3.35742 3.36133 3.36328 3.36523 3.36914 3.37109 3.375 3.37695 3.38086 3.38281 3.38672 3.38867 3.39258 3.39648 3.39844 3.40234 3.4043 3.4082 3.41211 3.41406 3.41797 3.42188 3.42578 3.42773 3.43164 3.43555 3.43945 3.44336 3.44531 3.44922 3.45313 3.45703 3.46094 3.46484 3.46875 3.47266 3.46875 3.44336 3.41602 3.38867 3.36328 3.33789 3.31445 3.28906 3.26563 3.24219 3.21875 3.19531 3.17383 3.15625 3.16016 3.16406 3.17969 3.20508 32.2188 32.25 32.2813 32.3125 32.3438 32.375 32.4063 32.4375 32.4375 32.4688 32.5 32.5313 32.5625 32.5938 32.625 32.6875 32.7188 32.75 32.7813 32.8125 32.8438 32.875 32.9063 32.9375 32.9688 33 33.0313 33.0625 33.125 33.1563 33.1875 33.2188 3.21875 3.20117 3.20508 3.20898 3.21289 3.2168 3.21875 3.22266 33.5625 33.5938 33.625 33.6563 33.7188 33.75 33.7813 33.8125 33.875 33.9063 33.9375 34 34.0313 34.0625 34.0938 34.1563 34.1875 34.2188 34.2813 34.3125 34.375 34.4063 34.4375 34.5 34.5313 34.5625 34.625 34.6563 34.7188 34.75 34.7813 34.8438 34.875 34.9375 34.9688 35.0313 35.0625 35.125 35.1563 35.2188 35.25 35.2813 35.3438 35.375 35.4375 35.5 35.5313 35.5938 35.625 35.6875 35.7188 35.7813 35.8125 35.875 35.9063 35.9688 36.0313 36.0625 36.125 36.1563 36.2188 36.2813 36.3125 36.375 36.4063 36.4688 36.5313 36.5625 36.625 36.6875 36.7188 36.7813 36.8438 36.875 36.9375 37 37.0313 37.0938 37.1563 37.2188 37.25 37.3125 37.375 37.4063 37.4688 37.5313 37.5938 37.625 37.6875 37.75 37.8125 37.8438 37.9063 37.9688 38.0313 38.0938 38.125 38.1875 38.25 38.3125 38.375 38.4063 38.4688 38.5313 38.5938 38.6563 38.7188 38.75 38.8125 38.875 38.9375 39 39.0625 39.125
3.41211 3.4082 3.40625 3.40234 3.40039 3.39844 3.39453 3.39258 3.38867 3.38672 3.38477 3.38086 3.37891 3.37695 3.37305 3.37109 3.36914 3.36719 3.36328 3.36133 3.35938 3.35742 3.35352 3.35156 3.34961 3.34766 3.3457 3.34375 3.33984 3.33789 3.33594 3.33398 3.33203 3.33008 3.32813 3.32617 3.32422 3.32227 3.32031 3.31836 3.31641 3.31445 3.3125 3.31055 3.30859 3.30664 3.30469 3.30273 3.30273 3.30078 3.29883 3.29688 3.29492 3.29297 3.29297 3.29102 3.28906 3.28711 3.28711 3.28516 3.2832 3.28125 3.28125 3.2793 3.27734 3.27734 3.27539 3.27539 3.27344 3.27148 3.27148 3.26953 3.26953 3.26758 3.26758 3.26563 3.26563 3.26367 3.26367 3.26172 3.26172 3.26172 3.25977 3.25977 3.25781 3.25781 3.25781 3.25586 3.25586 3.25586 3.25586 3.25391 3.25391 3.25391 3.25391 3.25195 3.25195 3.25195 3.25195 3.25195 3.25195 3.25195 3.25195 3.25 3.25 3.25 3.25 3.25 3.25 3.25 3.25 3.25 3.25195 3.25195 3.25195 3.25195 3.25195 3.25195 3.25195 3.25195 3.25391 3.25391 3.25391 3.25391 3.25586 3.25586 3.25586 3.25781 3.25781 3.25781 3.25977 3.25977 3.25977 3.26172 3.26172 3.26367 3.26367 3.26563 3.26563 3.26758 3.26758 3.26953 3.26953 3.27148 3.27148 3.27344 3.27539 3.27539 3.27734 3.2793 3.2793 3.28125 3.2832 3.28516 3.28516 3.28711 3.28906 3.29102 3.29297 3.29297 3.29492 3.29688 3.29883 3.30078 3.30273 3.30469 3.30664 3.30859 3.31055 3.3125 3.31445 3.31641 3.31836 3.32031 3.32227 3.32422 3.32617 3.32813 3.33203 3.33398 3.33594 3.33789 3.3418 3.34375 3.3457 3.34766 3.35156 3.35352 3.35547 3.35938 3.36133 3.36328 3.36719 3.36914 3.37305 3.375 3.37891 3.38086 3.38477 3.38672 3.39063 3.39258 3.39648 3.39844 3.40234 3.40625 3.4082 3.41211 3.41602 3.41797 3.42188 3.42578 3.42773 3.43164 3.43555 3.43945 3.44336 3.44531 3.44922 3.45313 3.45703 3.46094 3.46484 3.46875 3.47266 3.47656 3.4707 3.44336 3.41602 3.39063 3.36328 3.33984 3.31445 3.28906 3.26563 3.24219 3.21875 3.19531 3.17383 3.16016 3.16406 3.16797 3.18555 3.21094 31.9375 31.9531 31.9844 32 32.0313 32.0625 32.0938 32.125 32.1563 32.1875 32.2188 32.25 32.2813 32.3125 32.3438 32.375 32.4063 32.4375 32.4688 32.5 32.5313 32.5625 32.5938 32.625 32.6563 32.7188 32.75 32.7813 32.8125 32.8438 32.875 3.20508 3.17578 3.17188 3.17578 3.17969 3.18359 3.1875 3.18945 3.19336 3.19727 3.20117 3.20508 3.20898 3.21289 3.2168 3.21875 33.5313 33.5625 33.5938 33.625 33.6875 33.7188 33.75 33.8125 33.8438 33.875 33.9063 33.9688 34 34.0313 34.0938 34.125 34.1875 34.2188 34.25 34.3125 34.3438 34.375 34.4375 34.4688 34.5313 34.5625 34.625 34.6563 34.6875 34.75 34.7813 34.8438 34.875 34.9375 34.9688 35.0313 35.0625 35.125 35.1563 35.2188 35.25 35.3125 35.3438 35.4063 35.4375 35.5 35.5313 35.5938 35.6563 35.6875 35.75 35.7813 35.8438 35.875 35.9375 36 36.0313 36.0938 36.125 36.1875 36.25 36.2813 36.3438 36.4063 36.4375 36.5 36.5625 36.5938 36.6563 36.7188 36.75 36.8125 36.875 36.9063 36.9688 37.0313 37.0938 37.125 37.1875 37.25 37.2813 37.3438 37.4063 37.4688 37.5 37.5625 37.625 37.6875 37.7188 37.7813 37.8438 37.9063 37.9688 38 38.0625 38.125 38.1875 38.25 38.2813 38.3438 38.4063 38.4688 38.5313 38.5938 38.6563 38.6875 38.75
3.41406 3.41211 3.41016 3.40625 3.4043 3.40039 3.39844 3.39648 3.39258 3.39063 3.38672 3.38477 3.38281 3.37891 3.37695 3.375 3.37305 3.36914 3.36719 3.36523 3.36328 3.35938 3.35742 3.35547 3.35352 3.35156 3.34961 3.3457 3.34375 3.3418 3.33984 3.33789 3.33594 3.33398 3.33203 3.33008 3.32813 3.32617 3.32422 3.32227 3.32031 3.31836 3.31641 3.31445 3.3125 3.31055 3.30859 3.30664 3.30469 3.30273 3.30273 3.30078 3.29883 3.29688 3.29492 3.29492 3.29297 3.29102 3.28906 3.28906 3.28711 3.28516 3.28516 3.2832 3.28125 3.28125 3.2793 3.27734 3.27734 3.27539 3.27539 3.27344 3.27148 3.27148 3.26953 3.26953 3.26758 3.26758 3.26758 3.26563 3.26563 3.26367 3.26367 3.26367 3.26172 3.26172 3.25977 3.25977 3.25977 3.25977 3.25781 3.25781 3.25781 3.25781 3.25586 3.25586 3.25586 3.25586 3.25586 3.25586 3.25391 3.25391 3.25391 3.25391 3.25391 3.25391 3.25391 3.25391 3.25391 3.25391 3.25391 3.25391 3.25391 3.25391 3.25391 3.25586 3.25586 3.25586 3.25586 3.25586 3.25586 3.25781 3.25781 3.25781 3.25781 3.25977 3.25977 3.25977 3.26172 3.26172 3.26172 3.26367 3.26367 3.26563 3.26563 3.26563 3.26758 3.26758 3.26953 3.26953 3.27148 3.27148 3.27344 3.27539 3.27539 3.27734 3.27734 3.2793 3.28125 3.28125 3.2832 3.28516 3.28711 3.28711 3.28906 3.29102 3.29297 3.29297 3.29492 3.29688 3.29883 3.30078 3.30273 3.30469 3.30664 3.30859 3.31055 3.3125 3.31445 3.31641 3.31836 3.32031 3.32227 3.32422 3.32617 3.32813 3.33008 3.33203 3.33398 3.33789 3.33984 3.3418 3.34375 3.34766 3.34961 3.35156 3.35352 3.35742 3.35938 3.36328 3.36523 3.36719 3.37109 3.37305 3.37695 3.37891 3.38086 3.38477 3.38672 3.39063 3.39453 3.39648 3.40039 3.40234 3.40625 3.41016 3.41211 3.41602 3.41992 3.42188 3.42578 3.42969 3.43164 3.43555 3.43945 3.44336 3.44727 3.44922 3.45313 3.45703 3.46094 3.46484 3.46875 3.47266 3.47656 3.48047 3.4707 3.44336 3.41602 3.39063 3.36523 3.33984 3.31445 3.29102 3.26563 3.24219 3.21875 3.19727 3.17383 3.16406 3.16797 3.17188 3.19141 3.2168 31.6406 31.6719 31.7031 31.7188 31.75 31.7813 31.8125 31.8438 31.875 31.9063 31.9375 31.9688 32 32.0313 32.0625 32.0938 32.125 32.1563 32.1875 32.2188 32.25 32.2813 32.3125 32.3438 32.375 32.4063 32.4375 32.4688 32.5 3.22461 3.19336 3.16211 3.14063 3.14453 3.14648 3.15039 3.1543 3.1582 3.16211 3.16406 3.16797 3.17188 3.17578 3.17969 3.18359 3.1875 3.19141 3.19336 3.19727 3.20117 3.20508 3.20898 3.21289 3.2168 3.2207 33.5313 33.5625 33.625 33.6563 33.6875 33.75 33.7813 33.8125 33.875 33.9063 33.9375 34 34.0313 34.0938 34.125 34.1563 34.2188 34.25 34.3125 34.3438 34.375 34.4375 34.4688 34.5313 34.5625 34.625 34.6563 34.7188 34.75 34.8125 34.8438 34.9063 34.9375 35 35.0313 35.0938 35.125 35.1875 35.2188 35.2813 35.3125 35.375 35.4063 35.4688 35.5313 35.5625 35.625 35.6563 35.7188 35.75 35.8125 35.875 35.9063 35.9688 36.0313 36.0625 36.125 36.1563 36.2188 36.2813 36.3125 36.375 36.4375 36.4688 36.5313 36.5938 36.625 36.6875 36.75 36.8125 36.8438 36.9063 36.9688 37 37.0625 37.125 37.1875 37.2188 37.2813 37.3438 37.4063 37.4375 37.5 37.5625 37.625 37.6563 37.7188 37.7813 37.8438 37.9063 37.9375 38 38.0625 38.125 38.1875 38.25 38.2813 38.3438 38.4063
3.41797 3.41602 3.41211 3.41016 3.4082 3.4043 3.40234 3.39844 3.39648 3.39453 3.39063 3.38867 3.38672 3.38281 3.38086 3.37891 3.375 3.37305 3.37109 3.36914 3.36523 3.36328 3.36133 3.35938 3.35742 3.35352 3.35156 3.34961 3.34766 3.3457 3.34375 3.3418 3.33984 3.33789 3.33594 3.33203 3.33008 3.32813 3.32617 3.32422 3.32227 3.32031 3.32031 3.31836 3.31641 3.31445 3.3125 3.31055 3.30859 3.30664 3.30469 3.30469 3.30273 3.30078 3.29883 3.29688 3.29688 3.29492 3.29297 3.29102 3.29102 3.28906 3.28711 3.28711 3.28516 3.2832 3.2832 3.28125 3.2793 3.2793 3.27734 3.27734 3.27539 3.27539 3.27344 3.27344 3.27148 3.27148 3.26953 3.26953 3.26758 3.26758 3.26758 3.26563 3.26563 3.26563 3.26367 3.26367 3.26367 3.26172 3.26172 3.26172 3.26172 3.25977 3.25977 3.25977 3.25977 3.25977 3.25781 3.25781 3.25781 3.25781 3.25781 3.25781 3.25781 3.25781 3.25781 3.25781 3.25781 3.25781 3.25781 3.25781 3.25781 3.25781 3.25781 3.25781 3.25781 3.25977 3.25977 3.25977 3.25977 3.25977 3.26172 3.26172 3.26172 3.26172 3.26367 3.26367 3.26367 3.26563 3.26563 3.26758 3.26758 3.26758 3.26953 3.26953 3.27148 3.27148 3.27344 3.27344 3.27539 3.27539 3.27734 3.27734 3.2793 3.28125 3.28125 3.2832 3.28516 3.28516 3.28711 3.28906 3.28906 3.29102 3.29297 3.29492 3.29492 3.29688 3.29883 3.30078 3.30273 3.30469 3.30664 3.30859 3.30859 3.31055 3.3125 3.31445 3.31641 3.31836 3.32031 3.32227 3.32617 3.32813 3.33008 3.33203 3.33398 3.33594 3.33789 3.3418 3.34375 3.3457 3.34766 3.34961 3.35352 3.35547 3.35742 3.36133 3.36328 3.36523 3.36914 3.37109 3.375 3.37695 3.37891 3.38281 3.38477 3.38867 3.39063 3.39453 3.39648 3.40039 3.4043 3.40625 3.41016 3.41211 3.41602 3.41992 3.42188 3.42578 3.42969 3.43359 3.43555 3.43945 3.44336 3.44727 3.45117 3.45313 3.45703 3.46094 3.46484 3.46875 3.47266 3.47656 3.48047 3.48438 3.4707 3.44336 3.41797 3.39063 3.36523 3.33984 3.31445 3.29102 3.26563 3.24219 3.2207 3.19727 3.17383 3.16797 3.17188 3.17578 3.19922 3.22266 31.3594 31.3906 31.4063 31.4375 31.4688 31.5 31.5313 31.5625 31.5938 31.6094 31.6406 31.6719 31.7031 31.7344 31.7656 31.7969 31.8281 31.8594 31.8906 31.9219 31.9531 32 32.0313 32.0625 32.0938 32.125 32.1563 32.1875 3.21289 3.18164 3.15039 3.12109 3.11133 3.11523 3.11914 3.12305 3.12695 3.12891 3.13281 3.13672 3.14063 3.14453 3.14648 3.15039 3.1543 3.1582 3.16211 3.16602 3.16992 3.17383 3.17773 3.18164 3.18359 3.1875 3.19141 3.19531 3.19922 3.20313 3.20703 3.21094 3.21484 3.21875 33.5313 33.5625 33.5938 33.6563 33.6875 33.7188 33.7813 33.8125 33.875 33.9063 33.9375 34 34.0313 34.0938 34.125 34.1563 34.2188 34.25 34.3125 34.3438 34.4063 34.4375 34.5 34.5313 34.5938 34.625 34.6875 34.7188 34.7813 34.8125 34.875 34.9063 34.9688 35 35.0625 35.0938 35.1563 35.1875 35.25 35.3125 35.3438 35.4063 35.4375 35.5 35.5313 35.5938 35.6563 35.6875 35.75 35.7813 35.8438 35.9063 35.9375 36 36.0625 36.0938 36.1563 36.2188 36.25 36.3125 36.375 36.4063 36.4688 36.5313 36.5625 36.625 36.6875 36.75 36.7813 36.8438 36.9063 36.9375 37 37.0625 37.125 37.1563 37.2188 37.2813 37.3438 37.4063 37.4375 37.5 37.5625 37.625 37.6563 37.7188 37.7813 37.8438 37.9063 37.9688 38 38.0625
3.42188 3.41992 3.41602 3.41406 3.41016 3.4082 3.40625 3.40234 3.40039 3.39648 3.39453 3.39258 3.38867 3.38672 3.38477 3.38281 3.37891 3.37695 3.375 3.37109 3.36914 3.36719 3.36523 3.36328 3.35938 3.35742 3.35547 3.35352 3.35156 3.34961 3.34766 3.3457 3.3418 3.33984 3.33789 3.33594 3.33398 3.33203 3.33008 3.32813 3.32617 3.32422 3.32227 3.32031 3.31836 3.31836 3.31641 3.31445 3.3125 3.31055 3.30859 3.30664 3.30664 3.30469 3.30273 3.30078 3.29883 3.29883 3.29688 3.29492 3.29297 3.29297 3.29102 3.28906 3.28906 3.28711 3.28516 3.28516 3.2832 3.2832 3.28125 3.28125 3.2793 3.27734 3.27734 3.27539 3.27539 3.27539 3.27344 3.27344 3.27148 3.27148 3.26953 3.26953 3.26953 3.26758 3.26758 3.26758 3.26563 3.26563 3.26563 3.26563 3.26367 3.26367 3.26367 3.26367 3.26367 3.26172 3.26172 3.26172 3.26172 3.26172 3.26172 3.26172 3.26172 3.26172 3.26172 3.26172 3.26172 3.26172 3.26172 3.26172 3.26172 3.26172 3.26172 3.26172 3.26172 3.26172 3.26367 3.26367 3.26367 3.26367 3.26367 3.26563 3.26563 3.26563 3.26758 3.26758 3.26758 3.26953 3.26953 3.26953 3.27148 3.27148 3.27344 3.27344 3.27344 3.27539 3.27539 3.27734 3.27734 3.2793 3.28125 3.28125 3.2832 3.2832 3.28516 3.28711 3.28711 3.28906 3.29102 3.29102 3.29297 3.29492 3.29688 3.29883 3.29883 3.30078 3.30273 3.30469 3.30664 3.30859 3.30859 3.31055 3.3125 3.31445 3.31641 3.31836 3.32031 3.32227 3.32422 3.32617 3.32813 3.33203 3.33398 3.33594 3.33789 3.33984 3.3418 3.34375 3.34766 3.34961 3.35156 3.35352 3.35742 3.35938 3.36133 3.36523 3.36719 3.36914 3.37305 3.375 3.37695 3.38086 3.38281 3.38672 3.38867 3.39258 3.39453 3.39844 3.40039 3.4043 3.4082 3.41016 3.41406 3.41602 3.41992 3.42383 3.42578 3.42969 3.43359 3.4375 3.43945 3.44336 3.44727 3.45117 3.45508 3.45703 3.46094 3.46484 3.46875 3.47266 3.47656 3.48047 3.48438 3.48828 3.47266 3.44531 3.41797 3.39063 3.36523 3.33984 3.31641 3.29102 3.26758 3.24414 3.2207 3.19727 3.17578 3.17188 3.17383 3.17969 3.20508 3.23047 31.0781 31.1094 31.1406 31.1563 31.1875 31.2188 31.25 31.2813 31.3125 31.3281 31.3594 31.3906 31.4219 31.4531 31.4844 31.5156 31.5469 31.5781 31.6094 31.6406 31.6719 31.7031 31.7344 31.7813 31.8125 31.8438 31.875 31.9063 3.16992 3.13867 3.10938 3.08203 3.08398 3.08789 3.0918 3.0957 3.09766 3.10156 3.10547 3.10938 3.11133 3.11523 3.11914 3.12305 3.12695 3.13086 3.13477 3.13672 3.14063 3.14453 3.14844 3.15234 3.15625 3.16016 3.16406 3.16797 3.17188 3.17578 3.17969 3.18359 3.1875 3.19141 3.19531 3.19922 3.20313 3.20703 3.21094 3.21484 3.21875 3.22266 33.5625 33.5938 33.6563 33.6875 33.75 33.7813 33.8125 33.875 33.9063 33.9688 34 34.0313 34.0938 34.125 34.1875 34.2188 34.2813 34.3125 34.375 34.4063 34.4688 34.5 34.5625 34.5938 34.6563 34.6875 34.75 34.7813 34.8438 34.875 34.9375 35 35.0313 35.0938 35.125 35.1875 35.2188 35.2813 35.3438 35.375 35.4375 35.4688 35.5313 35.5938 35.625 35.6875 35.75 35.7813 35.8438 35.875 35.9375 36 36.0313 36.0938 36.1563 36.1875 36.25 36.3125 36.375 36.4063 36.4688 36.5313 36.5625 36.625 36.6875 36.75 36.7813 36.8438 36.9063 36.9375 37 37.0625 37.125 37.1875 37.2188 37.2813 37.3438 37.4063 37.4375 37.5 37.5625 37.625 37.6875 37.7188
3.42578 3.42383 3.41992 3.41797 3.41406 3.41211 3.4082 3.40625 3.4043 3.40039 3.39844 3.39648 3.39258 3.39063 3.38867 3.38477 3.38281 3.38086 3.37891 3.375 3.37305 3.37109 3.36914 3.36523 3.36328 3.36133 3.35938 3.35742 3.35547 3.35352 3.34961 3.34766 3.3457 3.34375 3.3418 3.33984 3.33789 3.33594 3.33398 3.33203 3.33008 3.32813 3.32617 3.32422 3.32227 3.32031 3.31836 3.31836 3.31641 3.31445 3.3125 3.31055 3.30859 3.30859 3.30664 3.30469 3.30273 3.30078 3.30078 3.29883 3.29688 3.29688 3.29492 3.29297 3.29297 3.29102 3.28906 3.28906 3.28711 3.28516 3.28516 3.2832 3.2832 3.28125 3.28125 3.2793 3.2793 3.27734 3.27734 3.27539 3.27539 3.27539 3.27344 3.27344 3.27148 3.27148 3.27148 3.26953 3.26953 3.26953 3.26953 3.26758 3.26758 3.26758 3.26758 3.26758 3.26563 3.26563 3.26563 3.26563 3.26563 3.26563 3.26563 3.26563 3.26367 3.26367 3.26367 3.26367 3.26367 3.26367 3.26367 3.26563 3.26563 3.26563 3.26563 3.26563 3.26563 3.26563 3.26563 3.26758 3.26758 3.26758 3.26758 3.26953 3.26953 3.26953 3.26953 3.27148 3.27148 3.27148 3.27344 3.27344 3.27539 3.27539 3.27539 3.27734 3.27734 3.2793 3.2793 3.28125 3.28125 3.2832 3.2832 3.28516 3.28711 3.28711 3.28906 3.29102 3.29102 3.29297 3.29492 3.29492 3.29688 3.29883 3.30078 3.30078 3.30273 3.30469 3.30664 3.30859 3.31055 3.31055 3.3125 3.31445 3.31641 3.31836 3.32031 3.32227 3.32422 3.32617 3.32813 3.33008 3.33203 3.33398 3.33789 3.33984 3.3418 3.34375 3.3457 3.34766 3.35156 3.35352 3.35547 3.35742 3.36133 3.36328 3.36523 3.36914 3.37109 3.37305 3.37695 3.37891 3.38086 3.38477 3.38672 3.39063 3.39258 3.39648 3.39844 3.40234 3.4043 3.4082 3.41211 3.41406 3.41797 3.41992 3.42383 3.42773 3.42969 3.43359 3.4375 3.44141 3.44336 3.44727 3.45117 3.45508 3.45898 3.46094 3.46484 3.46875 3.47266 3.47656 3.48047 3.48438 3.48828 3.49219 3.47266 3.44531 3.41797 3.39258 3.36719 3.3418 3.31641 3.29102 3.26758 3.24414 3.2207 3.19727 3.17578 3.17383 3.17773 3.18555 3.21094 30.7813 30.7969 30.8281 30.8594 30.8906 30.9219 30.9375 30.9688 31 31.0313 31.0625 31.0938 31.125 31.1563 31.1719 31.2031 31.2344 31.2656 31.2969 31.3281 31.3594 31.3906 31.4375 31.4688 31.5 31.5313 31.5625 31.5938 3.1582 3.12695 3.09766 3.06836 3.0625 3.06055 3.06055 3.06445 3.06836 3.07031 3.07422 3.07813 3.08203 3.08398 3.08789 3.0918 3.0957 3.09961 3.10352 3.10547 3.10938 3.11328 3.11719 3.12109 3.125 3.12891 3.13281 3.13672 3.14063 3.14453 3.14844 3.15234 3.15625 3.16016 3.16406 3.16797 3.17188 3.17578 3.17969 3.18359 3.1875 3.19141 3.19531 3.19922 3.20313 3.20703 3.21094 3.2168 3.2207 3.22461 33.5625 33.625 33.6563 33.6875 33.75 33.7813 33.8438 33.875 33.9375 33.9688 34.0313 34.0625 34.125 34.1563 34.2188 34.25 34.3125 34.3438 34.4063 34.4375 34.5 34.5313 34.5938 34.625 34.6875 34.7188 34.7813 34.8125 34.875 34.9375 34.9688 35.0313 35.0625 35.125 35.1563 35.2188 35.2813 35.3125 35.375 35.4063 35.4688 35.5313 35.5625 35.625 35.6875 35.7188 35.7813 35.8438 35.875 35.9375 36 36.0313 36.0938 36.1563 36.1875 36.25 36.3125 36.375 36.4063 36.4688 36.5313 36.5625 36.625 36.6875 36.75 36.7813 36.8438 36.9063 36.9688 37 37.0625 37.125 37.1875 37.25 37.2813 37.3438 37.4063
3.42969 3.42578 3.42383 3.42188 3.41797 3.41602 3.41211 3.41016 3.4082 3.4043 3.40234 3.39844 3.39648 3.39453 3.39258 3.38867 3.38672 3.38477 3.38086 3.37891 3.37695 3.375 3.37305 3.36914 3.36719 3.36523 3.36328 3.36133 3.35938 3.35547 3.35352 3.35156 3.34961 3.34766 3.3457 3.34375 3.3418 3.33984 3.33789 3.33594 3.33398 3.33203 3.33008 3.32813 3.32617 3.32422 3.32227 3.32031 3.32031 3.31836 3.31641 3.31445 3.3125 3.31055 3.31055 3.30859 3.30664 3.30469 3.30273 3.30273 3.30078 3.29883 3.29883 3.29688 3.29492 3.29492 3.29297 3.29102 3.29102 3.28906 3.28906 3.28711 3.28711 3.28516 3.28516 3.2832 3.2832 3.28125 3.28125 3.2793 3.2793 3.27734 3.27734 3.27734 3.27539 3.27539 3.27539 3.27344 3.27344 3.27344 3.27148 3.27148 3.27148 3.27148 3.27148 3.26953 3.26953 3.26953 3.26953 3.26953 3.26953 3.26953 3.26758 3.26758 3.26758 3.26758 3.26758 3.26758 3.26758 3.26758 3.26758 3.26758 3.26758 3.26953 3.26953 3.26953 3.26953 3.26953 3.26953 3.26953 3.27148 3.27148 3.27148 3.27148 3.27344 3.27344 3.27344 3.27539 3.27539 3.27539 3.27734 3.27734 3.27734 3.2793 3.2793 3.28125 3.28125 3.2832 3.2832 3.28516 3.28516 3.28711 3.28711 3.28906 3.28906 3.29102 3.29297 3.29297 3.29492 3.29688 3.29688 3.29883 3.30078 3.30273 3.30273 3.30469 3.30664 3.30859 3.31055 3.3125 3.3125 3.31445 3.31641 3.31836 3.32031 3.32227 3.32422 3.32617 3.32813 3.33008 3.33203 3.33398 3.33594 3.33789 3.33984 3.34375 3.3457 3.34766 3.34961 3.35156 3.35352 3.35742 3.35938 3.36133 3.36328 3.36719 3.36914 3.37109 3.375 3.37695 3.38086 3.38281 3.38477 3.38867 3.39063 3.39453 3.39648 3.40039 3.40234 3.40625 3.4082 3.41211 3.41602 3.41797 3.42188 3.42383 3.42773 3.43164 3.43359 3.4375 3.44141 3.44531 3.44727 3.45117 3.45508 3.45898 3.46289 3.46484 3.46875 3.47266 3.47656 3.48047 3.48438 3.48828 3.49219 3.49609 3.47266 3.44531 3.41992 3.39258 3.36719 3.3418 3.31641 3.29297 3.26758 3.24414 3.2207 3.19922 3.17578 3.17773 3.18164 3.19336 3.2168 30.5156 30.5313 30.5625 30.5938 30.625 30.6406 30.6719 30.7031 30.7344 30.7656 30.7813 30.8125 30.8438 30.875 30.9063 30.9375 30.9688 31 31.0313 31.0625 31.0938 31.125 31.1563 31.1875 31.2188 31.25 31.2813 31.3125 3.11523 3.08594 3.06641 3.06641 3.06445 3.06445 3.0625 3.0625 3.06055 3.06055 3.06055 3.05859 3.05859 3.05859 3.0625 3.06445 3.06836 3.07227 3.07617 3.08008 3.08203 3.08594 3.08984 3.09375 3.09766 3.10156 3.10547 3.10938 3.11328 3.11719 3.12109 3.125 3.12695 3.13086 3.13477 3.13867 3.14258 3.14844 3.15234 3.15625 3.16016 3.16406 3.16797 3.17188 3.17578 3.17969 3.18359 3.1875 3.19141 3.19531 3.20117 3.20508 3.20898 3.21289 3.2168 3.2207 3.22656 33.5938 33.625 33.6875 33.7188 33.7813 33.8125 33.875 33.9063 33.9688 34 34.0313 34.0938 34.125 34.1875 34.25 34.2813 34.3438 34.375 34.4375 34.4688 34.5313 34.5625 34.625 34.6563 34.7188 34.7813 34.8125 34.875 34.9063 34.9688 35 35.0625 35.125 35.1563 35.2188 35.2813 35.3125 35.375 35.4063 35.4688 35.5313 35.5625 35.625 35.6875 35.7188 35.7813 35.8438 35.875 35.9375 36 36.0313 36.0938 36.1563 36.2188 36.25 36.3125 36.375 36.4063 36.4688 36.5313 36.5938 36.625 36.6875 36.75 36.8125 36.8438 36.9063 36.9688 37.0313 37.0938
3.43359 3.42969 3.42773 3.42383 3.42188 3.41992 3.41602 3.41406 3.41016 3.4082 3.40625 3.40234 3.40039 3.39844 3.39453 3.39258 3.39063 3.38867 3.38477 3.38281 3.38086 3.37891 3.375 3.37305 3.37109 3.36914 3.36719 3.36523 3.36133 3.35938 3.35742 3.35547 3.35352 3.35156 3.34961 3.34766 3.3457 3.34375 3.3418 3.33984 3.33789 3.33594 3.33398 3.33203 3.33008 3.32813 3.32617 3.32422 3.32227 3.32031 3.32031 3.31836 3.31641 3.31445 3.3125 3.3125 3.31055 3.30859 3.30664 3.30664 3.30469 3.30273 3.30273 3.30078 3.29883 3.29883 3.29688 3.29492 3.29492 3.29297 3.29297 3.29102 3.28906 3.28906 3.28711 3.28711 3.28516 3.28516 3.28516 3.2832 3.2832 3.28125 3.28125 3.28125 3.2793 3.2793 3.27734 3.27734 3.27734 3.27734 3.27539 3.27539 3.27539 3.27539 3.27344 3.27344 3.27344 3.27344 3.27344 3.27344 3.27148 3.27148 3.27148 3.27148 3.27148 3.27148 3.27148 3.27148 3.27148 3.27148 3.27148 3.27148 3.27148 3.27148 3.27344 3.27344 3.27344 3.27344 3.27344 3.27344 3.27344 3.27539 3.27539 3.27539 3.27539 3.27734 3.27734 3.27734 3.2793 3.2793 3.2793 3.28125 3.28125 3.2832 3.2832 3.28516 3.28516 3.28711 3.28711 3.28906 3.28906 3.29102 3.29102 3.29297 3.29297 3.29492 3.29688 3.29688 3.29883 3.30078 3.30078 3.30273 3.30469 3.30664 3.30664 3.30859 3.31055 3.3125 3.31445 3.31445 3.31641 3.31836 3.32031 3.32227 3.32422 3.32617 3.32813 3.33008 3.33203 3.33398 3.33594 3.33789 3.33984 3.3418 3.34375 3.34766 3.34961 3.35156 3.35352 3.35547 3.35742 3.36133 3.36328 3.36523 3.36719 3.37109 3.37305 3.375 3.37891 3.38086 3.38477 3.38672 3.38867 3.39258 3.39453 3.39844 3.40039 3.4043 3.40625 3.41016 3.41211 3.41602 3.41992 3.42188 3.42578 3.42773 3.43164 3.43555 3.4375 3.44141 3.44531 3.44922 3.45117 3.45508 3.45898 3.46289 3.4668 3.46875 3.47266 3.47656 3.48047 3.48438 3.48828 3.49219 3.49609 3.5 3.47461 3.44727 3.41992 3.39258 3.36719 3.3418 3.31641 3.29297 3.26953 3.24609 3.22266 3.19922 3.17773 3.18164 3.18555 3.19922 3.22461 30.25 30.2656 30.2969 30.3281 30.3594 30.375 30.4063 30.4375 30.4688 30.5 30.5156 30.5469 30.5781 30.6094 30.6406 30.6719 30.7031 30.7344 30.7656 30.7969 30.8281 30.8594 30.8906 30.9219 30.9531 30.9844 31.0156 3.10352 3.07422 3.07031 3.06836 3.06836 3.06641 3.06641 3.06641 3.06445 3.06445 3.0625 3.0625 3.0625 3.06055 3.06055 3.05859 3.05859 3.05859 3.05859 3.05664 3.05664 3.05664 3.06055 3.06445 3.06641 3.07031 3.07422 3.07813 3.08203 3.08594 3.08984 3.09375 3.09766 3.10156 3.10547 3.10938 3.11328 3.11719 3.12109 3.125 3.12891 3.13281 3.13672 3.14063 3.14453 3.14844 3.15234 3.15625 3.16016 3.16406 3.16797 3.17383 3.17773 3.18164 3.18555 3.18945 3.19336 3.19727 3.20313 3.20703 3.21094 3.21484 3.2207 3.22461 3.22852 3.23242 33.6563 33.7188 33.75 33.8125 33.8438 33.9063 33.9375 34 34.0313 34.0938 34.125 34.1875 34.2188 34.2813 34.3125 34.375 34.4063 34.4688 34.5313 34.5625 34.625 34.6563 34.7188 34.75 34.8125 34.875 34.9063 34.9688 35 35.0625 35.125 35.1563 35.2188 35.2813 35.3125 35.375 35.4375 35.4688 35.5313 35.5938 35.625 35.6875 35.75 35.7813 35.8438 35.9063 35.9375 36 36.0625 36.0938 36.1563 36.2188 36.2813 36.3125 36.375 36.4375 36.5 36.5313 36.5938 36.6563 36.7188 36.75
3.4375 3.43359 3.43164 3.42773 3.42578 3.42383 3.41992 3.41797 3.41406 3.41211 3.41016 3.40625 3.4043 3.40234 3.39844 3.39648 3.39453 3.39063 3.38867 3.38672 3.38477 3.38281 3.37891 3.37695 3.375 3.37305 3.37109 3.36719 3.36523 3.36328 3.36133 3.35938 3.35742 3.35547 3.35352 3.35156 3.34961 3.34766 3.3457 3.34375 3.3418 3.33984 3.33789 3.33594 3.33398 3.33203 3.33008 3.32813 3.32617 3.32422 3.32422 3.32227 3.32031 3.31836 3.31641 3.31445 3.31445 3.3125 3.31055 3.30859 3.30859 3.30664 3.30469 3.30469 3.30273 3.30078 3.30078 3.29883 3.29883 3.29688 3.29492 3.29492 3.29297 3.29297 3.29102 3.29102 3.28906 3.28906 3.28711 3.28711 3.28711 3.28516 3.28516 3.2832 3.2832 3.2832 3.28125 3.28125 3.28125 3.2793 3.2793 3.2793 3.2793 3.27734 3.27734 3.27734 3.27734 3.27734 3.27734 3.27539 3.27539 3.27539 3.27539 3.27539 3.27539 3.27539 3.27539 3.27539 3.27539 3.27539 3.27539 3.27539 3.27539 3.27539 3.27539 3.27539 3.27734 3.27734 3.27734 3.27734 3.27734 3.2793 3.2793 3.2793 3.2793 3.28125 3.28125 3.28125 3.2832 3.2832 3.2832 3.28516 3.28516 3.28711 3.28711 3.28711 3.28906 3.28906 3.29102 3.29102 3.29297 3.29492 3.29492 3.29688 3.29688 3.29883 3.30078 3.30078 3.30273 3.30469 3.30469 3.30664 3.30859 3.30859 3.31055 3.3125 3.31445 3.31641 3.31836 3.31836 3.32031 3.32227 3.32422 3.32617 3.32813 3.33008 3.33203 3.33398 3.33594 3.33789 3.33984 3.3418 3.34375 3.3457 3.34766 3.34961 3.35352 3.35547 3.35742 3.35938 3.36133 3.36523 3.36719 3.36914 3.37109 3.375 3.37695 3.37891 3.38281 3.38477 3.38867 3.39063 3.39258 3.39648 3.39844 3.40234 3.4043 3.4082 3.41016 3.41406 3.41602 3.41992 3.42383 3.42578 3.42969 3.43164 3.43555 3.43945 3.44141 3.44531 3.44922 3.45313 3.45508 3.45898 3.46289 3.4668 3.4707 3.47461 3.47656 3.48047 3.48438 3.48828 3.49219 3.49609 3.5 3.50195 3.47461 3.44727 3.41992 3.39453 3.36914 3.34375 3.31836 3.29297 3.26953 3.24609 3.22266 3.19922 3.18164 3.18555 3.18945 3.20508 3.23047 29.9844 30.0156 30.0469 30.0625 30.0938 30.125 30.1563 30.1719 30.2031 30.2344 30.2656 30.2969 30.3125 30.3438 30.375 30.4063 30.4375 30.4688 30.5 30.5313 30.5625 30.5938 30.625 30.6563 30.6875 30.7188 30.75 3.07422 3.07422 3.07227 3.07227 3.07031 3.07031 3.06836 3.06836 3.06836 3.06641 3.06641 3.06445 3.06445 3.06445 3.0625 3.0625 3.0625 3.06055 3.06055 3.06055 3.05859 3.05859 3.05859 3.05859 3.05664 3.05664 3.05664 3.05664 3.05664 3.05859 3.0625 3.06641 3.07031 3.07422 3.07813 3.08203 3.08594 3.08984 3.09375 3.09766 3.10156 3.10547 3.10938 3.11328 3.11719 3.12109 3.125 3.12891 3.13281 3.13672 3.14258 3.14648 3.15039 3.1543 3.1582 3.16211 3.16602 3.17188 3.17578 3.17969 3.18359 3.1875 3.19141 3.19727 3.20117 3.20508 3.20898 3.21484 3.21875 3.22266 3.22656 3.23242 3.23633 33.6875 33.75 33.7813 33.8438 33.875 33.9375 33.9688 34.0313 34.0625 34.125 34.1875 34.2188 34.2813 34.3125 34.375 34.4063 34.4688 34.5313 34.5625 34.625 34.6563 34.7188 34.7813 34.8125 34.875 34.9063 34.9688 35.0313 35.0625 35.125 35.1875 35.2188 35.2813 35.3438 35.375 35.4375 35.5 35.5313 35.5938 35.6563 35.6875 35.75 35.8125 35.8438 35.9063 35.9688 36 36.0625 36.125 36.1875 36.2188 36.2813 36.3438 36.4063 36.4375
3.44141 3.4375 3.43555 3.43164 3.42969 3.42578 3.42383 3.42188 3.41797 3.41602 3.41406 3.41016 3.4082 3.40625 3.40234 3.40039 3.39844 3.39453 3.39258 3.39063 3.38867 3.38477 3.38281 3.38086 3.37891 3.37695 3.37305 3.37109 3.36914 3.36719 3.36523 3.36328 3.36133 3.35938 3.35742 3.35547 3.35352 3.35156 3.34961 3.34766 3.3457 3.34375 3.3418 3.33984 3.33789 3.33594 3.33398 3.33203 3.33008 3.32813 3.32617 3.32617 3.32422 3.32227 3.32031 3.31836 3.31836 3.31641 3.31445 3.3125 3.3125 3.31055 3.30859 3.30859 3.30664 3.30469 3.30469 3.30273 3.30078 3.30078 3.29883 3.29883 3.29688 3.29688 3.29492 3.29492 3.29297 3.29297 3.29102 3.29102 3.28906 3.28906 3.28906 3.28711 3.28711 3.28711 3.28516 3.28516 3.28516 3.2832 3.2832 3.2832 3.2832 3.28125 3.28125 3.28125 3.28125 3.28125 3.2793 3.2793 3.2793 3.2793 3.2793 3.2793 3.2793 3.2793 3.2793 3.2793 3.2793 3.2793 3.2793 3.2793 3.2793 3.2793 3.2793 3.2793 3.28125 3.28125 3.28125 3.28125 3.28125 3.28125 3.2832 3.2832 3.2832 3.28516 3.28516 3.28516 3.28711 3.28711 3.28711 3.28906 3.28906 3.28906 3.29102 3.29102 3.29297 3.29297 3.29492 3.29492 3.29688 3.29688 3.29883 3.30078 3.30078 3.30273 3.30273 3.30469 3.30664 3.30664 3.30859 3.31055 3.3125 3.3125 3.31445 3.31641 3.31836 3.32031 3.32031 3.32227 3.32422 3.32617 3.32813 3.33008 3.33203 3.33398 3.33594 3.33789 3.33984 3.3418 3.34375 3.3457 3.34766 3.34961 3.35156 3.35352 3.35742 3.35938 3.36133 3.36328 3.36523 3.36914 3.37109 3.37305 3.375 3.37891 3.38086 3.38281 3.38672 3.38867 3.39258 3.39453 3.39648 3.40039 3.40234 3.40625 3.4082 3.41211 3.41406 3.41797 3.41992 3.42383 3.42773 3.42969 3.43359 3.43555 3.43945 3.44336 3.44727 3.44922 3.45313 3.45703 3.46094 3.46289 3.4668 3.4707 3.47461 3.47852 3.48047 3.48438 3.48828 3.49219 3.49609 3.5 3.50391 3.50391 3.47461 3.44727 3.42188 3.39453 3.36914 3.34375 3.31836 3.29492 3.26953 3.24609 3.22266 3.20117 3.18555 3.18945 3.19336 3.21289 3.23633 29.7344 29.7656 29.7813 29.8125 29.8438 29.8594 29.8906 29.9219 29.9531 29.9844 30 30.0313 30.0625 30.0938 30.125 30.1563 30.1875 30.2031 30.2344 30.2656 30.2969 30.3281 30.3594 30.3906 30.4219 30.4531 30.4844 3.07813 3.07617 3.07617 3.04883 3.05273 3.05469 3.05859 3.0625 3.06445 3.06836 3.06836 3.06836 3.06641 3.06641 3.06641 3.06445 3.06445 3.06445 3.0625 3.0625 3.0625 3.06055 3.06055 3.06055 3.06055 3.05859 3.05859 3.05859 3.05859 3.05859 3.05664 3.05664 3.05664 3.05664 3.05664 3.05664 3.06055 3.06445 3.06836 3.07227 3.07617 3.08008 3.08398 3.08789 3.0918 3.0957 3.09961 3.10352 3.10742 3.11133 3.11523 3.11914 3.12305 3.12695 3.13086 3.13672 3.14063 3.14453 3.14844 3.15234 3.15625 3.16016 3.16602 3.16992 3.17383 3.17773 3.18359 3.1875 3.19141 3.19531 3.19922 3.20508 3.20898 3.21289 3.21875 3.22266 3.22656 3.23047 3.23633 3.24023 3.24414 33.7813 33.8438 33.875 33.9375 33.9688 34.0313 34.0938 34.125 34.1875 34.2188 34.2813 34.3125 34.375 34.4375 34.4688 34.5313 34.5625 34.625 34.6875 34.7188 34.7813 34.8125 34.875 34.9375 34.9688 35.0313 35.0938 35.125 35.1875 35.25 35.2813 35.3438 35.4063 35.4375 35.5 35.5625 35.5938 35.6563 35.7188 35.75 35.8125 35.875 35.9375 35.9688 36.0313 36.0938 36.1563
3.44531 3.44141 3.43945 3.43555 3.43359 3.42969 3.42773 3.42578 3.42188 3.41992 3.41797 3.41406 3.41211 3.41016 3.40625 3.4043 3.40234 3.39844 3.39648 3.39453 3.39258 3.38867 3.38672 3.38477 3.38281 3.38086 3.37695 3.375 3.37305 3.37109 3.36914 3.36719 3.36523 3.36328 3.36133 3.35742 3.35547 3.35352 3.35156 3.34961 3.34766 3.3457 3.3457 3.34375 3.3418 3.33984 3.33789 3.33594 3.33398 3.33203 3.33008 3.32813 3.32813 3.32617 3.32422 3.32227 3.32031 3.32031 3.31836 3.31641 3.31641 3.31445 3.3125 3.3125 3.31055 3.30859 3.30859 3.30664 3.30469 3.30469 3.30273 3.30273 3.30078 3.30078 3.29883 3.29883 3.29688 3.29688 3.29492 3.29492 3.29297 3.29297 3.29297 3.29102 3.29102 3.28906 3.28906 3.28906 3.28711 3.28711 3.28711 3.28711 3.28516 3.28516 3.28516 3.28516 3.28516 3.2832 3.2832 3.2832 3.2832 3.2832 3.2832 3.2832 3.2832 3.2832 3.2832 3.2832 3.2832 3.2832 3.2832 3.2832 3.2832 3.2832 3.2832 3.2832 3.2832 3.28516 3.28516 3.28516 3.28516 3.28516 3.28711 3.28711 3.28711 3.28711 3.28906 3.28906 3.28906 3.29102 3.29102 3.29297 3.29297 3.29297 3.29492 3.29492 3.29688 3.29688 3.29883 3.29883 3.30078 3.30078 3.30273 3.30469 3.30469 3.30664 3.30664 3.30859 3.31055 3.31055 3.3125 3.31445 3.31641 3.31641 3.31836 3.32031 3.32227 3.32422 3.32422 3.32617 3.32813 3.33008 3.33203 3.33398 3.33594 3.33789 3.33984 3.3418 3.34375 3.3457 3.34766 3.34961 3.35156 3.35352 3.35547 3.35742 3.36133 3.36328 3.36523 3.36719 3.36914 3.37305 3.375 3.37695 3.37891 3.38281 3.38477 3.38672 3.39063 3.39258 3.39648 3.39844 3.40039 3.4043 3.40625 3.41016 3.41211 3.41602 3.41797 3.42188 3.42383 3.42773 3.43164 3.43359 3.4375 3.44141 3.44336 3.44727 3.45117 3.45313 3.45703 3.46094 3.46484 3.4668 3.4707 3.47461 3.47852 3.48242 3.48633 3.48828 3.49219 3.49609 3.5 3.50391 3.50781 3.50391 3.47656 3.44922 3.42188 3.39648 3.36914 3.34375 3.32031 3.29492 3.27148 3.24805 3.22461 3.20117 3.18945 3.19336 3.19727 3.21875 3.24414 29.4844 29.5 29.5313 29.5625 29.5938 29.6094 29.6406 29.6719 29.7031 29.7188 29.75 29.7813 29.8125 29.8438 29.875 29.8906 29.9219 29.9531 29.9844 30.0156 30.0469 30.0781 30.1094 30.1406 30.1719 30.2031 3.08203 3.08008 3.08008 3.07813 3.03906 3.03711 3.03711 3.03516 3.03516 3.03906 3.04297 3.04688 3.04883 3.05273 3.05664 3.06055 3.06445 3.06641 3.06641 3.06641 3.06445 3.06445 3.06445 3.06445 3.0625 3.0625 3.0625 3.0625 3.06055 3.06055 3.06055 3.06055 3.06055 3.06055 3.05859 3.05859 3.05859 3.05859 3.05859 3.05859 3.05859 3.05859 3.05664 3.05664 3.06055 3.06445 3.06836 3.07227 3.07617 3.08203 3.08594 3.08984 3.09375 3.09766 3.10156 3.10547 3.10938 3.11328 3.11719 3.12109 3.12695 3.13086 3.13477 3.13867 3.14258 3.14648 3.15234 3.15625 3.16016 3.16406 3.16992 3.17383 3.17773 3.18164 3.1875 3.19141 3.19531 3.19922 3.20508 3.20898 3.21289 3.21875 3.22266 3.22656 3.23242 3.23633 3.24023 3.24609 3.25 33.8438 33.9063 33.9375 34 34.0313 34.0938 34.125 34.1875 34.25 34.2813 34.3438 34.375 34.4375 34.5 34.5313 34.5938 34.625 34.6875 34.75 34.7813 34.8438 34.9063 34.9375 35 35.0625 35.0938 35.1563 35.2188 35.25 35.3125 35.375 35.4063 35.4688 35.5313 35.5625 35.625 35.6875 35.7188 35.7813 35.8438
3.44922 3.44531 3.44336 3.43945 3.4375 3.43359 3.43164 3.42969 3.42578 3.42383 3.41992 3.41797 3.41602 3.41211 3.41016 3.4082 3.40625 3.40234 3.40039 3.39844 3.39648 3.39258 3.39063 3.38867 3.38672 3.38477 3.38086 3.37891 3.37695 3.375 3.37305 3.37109 3.36914 3.36719 3.36328 3.36133 3.35938 3.35742 3.35547 3.35352 3.35156 3.34961 3.34766 3.3457 3.3457 3.34375 3.3418 3.33984 3.33789 3.33594 3.33398 3.33203 3.33203 3.33008 3.32813 3.32617 3.32422 3.32422 3.32227 3.32031 3.31836 3.31836 3.31641 3.31445 3.31445 3.3125 3.31055 3.31055 3.30859 3.30859 3.30664 3.30664 3.30469 3.30469 3.30273 3.30273 3.30078 3.30078 3.29883 3.29883 3.29688 3.29688 3.29492 3.29492 3.29492 3.29297 3.29297 3.29297 3.29102 3.29102 3.29102 3.29102 3.28906 3.28906 3.28906 3.28906 3.28906 3.28711 3.28711 3.28711 3.28711 3.28711 3.28711 3.28711 3.28711 3.28711 3.28711 3.28711 3.28711 3.28711 3.28711 3.28711 3.28711 3.28711 3.28711 3.28711 3.28711 3.28906 3.28906 3.28906 3.28906 3.28906 3.29102 3.29102 3.29102 3.29102 3.29297 3.29297 3.29297 3.29492 3.29492 3.29492 3.29688 3.29688 3.29883 3.29883 3.30078 3.30078 3.30273 3.30273 3.30469 3.30469 3.30664 3.30664 3.30859 3.31055 3.31055 3.3125 3.31445 3.31445 3.31641 3.31836 3.32031 3.32031 3.32227 3.32422 3.32617 3.32813 3.32813 3.33008 3.33203 3.33398 3.33594 3.33789 3.33984 3.3418 3.34375 3.3457 3.34766 3.34961 3.35156 3.35352 3.35547 3.35742 3.35938 3.36133 3.36523 3.36719 3.36914 3.37109 3.37305 3.37695 3.37891 3.38086 3.38477 3.38672 3.38867 3.39063 3.39453 3.39648 3.40039 3.40234 3.4043 3.4082 3.41016 3.41406 3.41602 3.41992 3.42188 3.42578 3.42969 3.43164 3.43555 3.4375 3.44141 3.44531 3.44727 3.45117 3.45508 3.45703 3.46094 3.46484 3.46875 3.47266 3.47461 3.47852 3.48242 3.48633 3.49023 3.49414 3.49805 3.5 3.50391 3.50781 3.51172 3.50586 3.47656 3.44922 3.42188 3.39648 3.37109 3.3457 3.32031 3.29492 3.27148 3.24805 3.22461 3.20117 3.19336 3.19727 3.20117 3.22461 3.25 29.2344 29.2656 29.2813 29.3125 29.3438 29.375 29.3906 29.4219 29.4531 29.4844 29.5 29.5313 29.5625 29.5938 29.625 29.6406 29.6719 29.7031 29.7344 29.7656 29.7969 29.8281 29.8594 29.8906 29.9219 29.9531 3.08398 3.08398 3.08203 3.08203 3.04102 3.04102 3.03906 3.03906 3.03711 3.03711 3.03516 3.03516 3.03516 3.0332 3.0332 3.03516 3.03711 3.04102 3.04492 3.04883 3.05273 3.05664 3.05859 3.0625 3.06641 3.06641 3.06445 3.06445 3.06445 3.06445 3.0625 3.0625 3.0625 3.0625 3.0625 3.0625 3.0625 3.06055 3.06055 3.06055 3.06055 3.06055 3.06055 3.06055 3.06055 3.06055 3.06055 3.06055 3.06055 3.06055 3.06055 3.06445 3.06836 3.07227 3.07617 3.08008 3.08398 3.08789 3.0918 3.0957 3.09961 3.10352 3.10938 3.11328 3.11719 3.12109 3.125 3.12891 3.13477 3.13867 3.14258 3.14648 3.15234 3.15625 3.16016 3.16406 3.16992 3.17383 3.17773 3.18164 3.1875 3.19141 3.19531 3.20117 3.20508 3.20898 3.21484 3.21875 3.22266 3.22852 3.23242 3.23633 3.24219 3.24609 3.25195 3.25586 33.9063 33.9375 34 34.0625 34.0938 34.1563 34.1875 34.25 34.3125 34.3438 34.4063 34.4375 34.5 34.5625 34.5938 34.6563 34.7188 34.75 34.8125 34.875 34.9063 34.9688 35.0313 35.0625 35.125 35.1875 35.2188 35.2813 35.3438 35.375 35.4375 35.5 35.5313
3.45313 3.44922 3.44727 3.44336 3.44141 3.4375 3.43555 3.43359 3.42969 3.42773 3.42383 3.42188 3.41992 3.41602 3.41406 3.41211 3.41016 3.40625 3.4043 3.40234 3.40039 3.39648 3.39453 3.39258 3.39063 3.38672 3.38477 3.38281 3.38086 3.37891 3.37695 3.375 3.37305 3.37109 3.36719 3.36523 3.36328 3.36133 3.35938 3.35742 3.35547 3.35352 3.35156 3.34961 3.34961 3.34766 3.3457 3.34375 3.3418 3.33984 3.33789 3.33594 3.33594 3.33398 3.33203 3.33008 3.32813 3.32813 3.32617 3.32422 3.32227 3.32227 3.32031 3.31836 3.31836 3.31641 3.31445 3.31445 3.3125 3.3125 3.31055 3.31055 3.30859 3.30664 3.30664 3.30469 3.30469 3.30273 3.30273 3.30273 3.30078 3.30078 3.29883 3.29883 3.29883 3.29688 3.29688 3.29688 3.29492 3.29492 3.29492 3.29492 3.29297 3.29297 3.29297 3.29297 3.29297 3.29102 3.29102 3.29102 3.29102 3.29102 3.29102 3.29102 3.29102 3.29102 3.29102 3.29102 3.29102 3.29102 3.29102 3.29102 3.29102 3.29102 3.29102 3.29102 3.29102 3.29102 3.29297 3.29297 3.29297 3.29297 3.29492 3.29492 3.29492 3.29492 3.29688 3.29688 3.29688 3.29883 3.29883 3.29883 3.30078 3.30078 3.30273 3.30273 3.30469 3.30469 3.30664 3.30664 3.30859 3.30859 3.31055 3.31055 3.3125 3.31445 3.31445 3.31641 3.31836 3.31836 3.32031 3.32227 3.32422 3.32422 3.32617 3.32813 3.33008 3.33203 3.33203 3.33398 3.33594 3.33789 3.33984 3.3418 3.34375 3.3457 3.34766 3.34961 3.35156 3.35352 3.35547 3.35742 3.35938 3.36133 3.36328 3.36719 3.36914 3.37109 3.37305 3.375 3.37695 3.38086 3.38281 3.38477 3.38867 3.39063 3.39258 3.39648 3.39844 3.40039 3.4043 3.40625 3.41016 3.41211 3.41406 3.41797 3.41992 3.42383 3.42773 3.42969 3.43359 3.43555 3.43945 3.44141 3.44531 3.44922 3.45117 3.45508 3.45898 3.46289 3.46484 3.46875 3.47266 3.47656 3.47852 3.48242 3.48633 3.49023 3.49414 3.49805 3.50195 3.50586 3.50977 3.51367 3.51758 3.50586 3.47852 3.45117 3.42383 3.39648 3.37109 3.3457 3.32031 3.29688 3.27148 3.24805 3.22461 3.20313 3.19727 3.20117 3.20703 3.23242 3.25781 29 29.0156 29.0469 29.0781 29.0938 29.125 29.1563 29.1719 29.2031 29.2344 29.2656 29.2969 29.3125 29.3438 29.375 29.4063 29.4375 29.4688 29.4844 29.5156 29.5469 29.5781 29.6094 29.6406 29.6719 29.7031 3.08789 3.08594 3.08594 3.08398 3.04492 3.04297 3.04297 3.04102 3.04102 3.03906 3.03906 3.03711 3.03711 3.03711 3.03516 3.03516 3.03516 3.0332 3.0332 3.0332 3.03125 3.03125 3.0332 3.03711 3.04102 3.04492 3.04883 3.05273 3.05664 3.06055 3.0625 3.06641 3.06641 3.06445 3.06445 3.06445 3.06445 3.06445 3.06445 3.06445 3.0625 3.0625 3.0625 3.0625 3.0625 3.0625 3.0625 3.0625 3.0625 3.0625 3.0625 3.0625 3.0625 3.0625 3.0625 3.0625 3.0625 3.0625 3.06641 3.07031 3.07422 3.07813 3.08398 3.08789 3.0918 3.0957 3.09961 3.10352 3.10742 3.11328 3.11719 3.12109 3.125 3.12891 3.13477 3.13867 3.14258 3.14648 3.15234 3.15625 3.16016 3.16602 3.16992 3.17383 3.17773 3.18359 3.1875 3.19141 3.19727 3.20117 3.20508 3.21094 3.21484 3.21875 3.22461 3.22852 3.23438 3.23828 3.24219 3.24805 3.25195 3.25781 3.26172 3.26758 34.0313 34.0625 34.125 34.1563 34.2188 34.2813 34.3125 34.375 34.4063 34.4688 34.5313 34.5625 34.625 34.6875 34.7188 34.7813 34.8438 34.875 34.9375 35 35.0313 35.0938 35.1563 35.1875 35.25
3.45703 3.45313 3.45117 3.44727 3.44531 3.44141 3.43945 3.4375 3.43359 3.43164 3.42773 3.42578 3.42383 3.41992 3.41797 3.41602 3.41406 3.41016 3.4082 3.40625 3.4043 3.40039 3.39844 3.39648 3.39453 3.39063 3.38867 3.38672 3.38477 3.38281 3.38086 3.37891 3.37695 3.37305 3.37109 3.36914 3.36719 3.36523 3.36328 3.36133 3.35938 3.35742 3.35547 3.35352 3.35156 3.35156 3.34961 3.34766 3.3457 3.34375 3.3418 3.33984 3.33789 3.33789 3.33594 3.33398 3.33203 3.33203 3.33008 3.32813 3.32617 3.32617 3.32422 3.32227 3.32227 3.32031 3.31836 3.31836 3.31641 3.31641 3.31445 3.3125 3.3125 3.31055 3.31055 3.30859 3.30859 3.30664 3.30664 3.30664 3.30469 3.30469 3.30273 3.30273 3.30273 3.30078 3.30078 3.30078 3.29883 3.29883 3.29883 3.29883 3.29688 3.29688 3.29688 3.29688 3.29492 3.29492 3.29492 3.29492 3.29492 3.29492 3.29492 3.29492 3.29492 3.29492 3.29492 3.29492 3.29492 3.29492 3.29492 3.29492 3.29492 3.29492 3.29492 3.29492 3.29492 3.29492 3.29688 3.29688 3.29688 3.29688 3.29883 3.29883 3.29883 3.29883 3.30078 3.30078 3.30078 3.30273 3.30273 3.30273 3.30469 3.30469 3.30664 3.30664 3.30859 3.30859 3.31055 3.31055 3.3125 3.3125 3.31445 3.31445 3.31641 3.31836 3.31836 3.32031 3.32227 3.32227 3.32422 3.32617 3.32813 3.32813 3.33008 3.33203 3.33398 3.33594 3.33594 3.33789 3.33984 3.3418 3.34375 3.3457 3.34766 3.34961 3.35156 3.35352 3.35547 3.35742 3.35938 3.36133 3.36328 3.36523 3.36719 3.37109 3.37305 3.375 3.37695 3.37891 3.38281 3.38477 3.38672 3.38867 3.39258 3.39453 3.39648 3.40039 3.40234 3.4043 3.4082 3.41016 3.41406 3.41602 3.41992 3.42188 3.42578 3.42773 3.43164 3.43359 3.4375 3.43945 3.44336 3.44727 3.44922 3.45313 3.45703 3.45898 3.46289 3.4668 3.4707 3.47266 3.47656 3.48047 3.48438 3.48633 3.49023 3.49414 3.49805 3.50195 3.50586 3.50977 3.51367 3.51758 3.52148 3.50586 3.47852 3.45117 3.42383 3.39844 3.37305 3.34766 3.32227 3.29688 3.27344 3.25 3.22656 3.20313 3.20117 3.20508 3.21289 3.23828 28.7344 28.75 28.7813 28.8125 28.8281 28.8594 28.8906 28.9063 28.9375 28.9688 29 29.0156 29.0469 29.0781 29.1094 29.1406 29.1563 29.1875 29.2188 29.25 29.2813 29.3125 29.3438 29.375 29.4063 29.4375 29.4688 3.08984 3.08984 3.08789 3.08789 3.04688 3.04688 3.04492 3.04492 3.04297 3.04297 3.04102 3.04102 3.04102 3.03906 3.03906 3.03711 3.03711 3.03711 3.03516 3.03516 3.03516 3.0332 3.0332 3.0332 3.0332 3.03125 3.03125 3.03125 3.03125 3.03516 3.03906 3.04297 3.04492 3.04883 3.05273 3.05664 3.06055 3.06445 3.06641 3.06641 3.06641 3.06641 3.06641 3.06641 3.06641 3.06641 3.06641 3.06445 3.06445 3.06445 3.06445 3.06445 3.06445 3.06445 3.06445 3.06641 3.06641 3.06641 3.06641 3.06641 3.06641 3.06641 3.06641 3.06641 3.06641 3.07031 3.07422 3.07813 3.08398 3.08789 3.0918 3.0957 3.09961 3.10352 3.10938 3.11328 3.11719 3.12109 3.12695 3.13086 3.13477 3.13867 3.14453 3.14844 3.15234 3.15625 3.16211 3.16602 3.16992 3.17578 3.17969 3.18359 3.18945 3.19336 3.19727 3.20313 3.20703 3.21289 3.2168 3.2207 3.22656 3.23047 3.23633 3.24023 3.24414 3.25 3.25391 3.25977 3.26367 3.26953 3.27344 34.0938 34.1563 34.1875 34.25 34.2813 34.3438 34.4063 34.4375 34.5 34.5625 34.5938 34.6563 34.7188 34.75 34.8125 34.875 34.9063 34.9688
3.46094 3.45703 3.45508 3.45117 3.44922 3.44531 3.44336 3.44141 3.4375 3.43555 3.43164 3.42969 3.42773 3.42383 3.42188 3.41992 3.41797 3.41406 3.41211 3.41016 3.4082 3.4043 3.40234 3.40039 3.39844 3.39453 3.39258 3.39063 3.38867 3.38672 3.38477 3.38281 3.38086 3.37695 3.375 3.37305 3.37109 3.36914 3.36719 3.36523 3.36328 3.36133 3.35938 3.35742 3.35547 3.35547 3.35352 3.35156 3.34961 3.34766 3.3457 3.34375 3.3418 3.3418 3.33984 3.33789 3.33594 3.33594 3.33398 3.33203 3.33008 3.33008 3.32813 3.32617 3.32617 3.32422 3.32227 3.32227 3.32031 3.32031 3.31836 3.31641 3.31641 3.31445 3.31445 3.3125 3.3125 3.31055 3.31055 3.31055 3.30859 3.30859 3.30664 3.30664 3.30664 3.30469 3.30469 3.30469 3.30273 3.30273 3.30273 3.30078 3.30078 3.30078 3.30078 3.30078 3.29883 3.29883 3.29883 3.29883 3.29883 3.29883 3.29883 3.29883 3.29883 3.29883 3.29883 3.29883 3.29883 3.29883 3.29883 3.29883 3.29883 3.29883 3.29883 3.29883 3.29883 3.29883 3.30078 3.30078 3.30078 3.30078 3.30273 3.30273 3.30273 3.30273 3.30469 3.30469 3.30469 3.30664 3.30664 3.30664 3.30859 3.30859 3.31055 3.31055 3.3125 3.3125 3.31445 3.31445 3.31641 3.31641 3.31836 3.32031 3.32031 3.32227 3.32227 3.32422 3.32617 3.32617 3.32813 3.33008 3.33203 3.33203 3.33398 3.33594 3.33789 3.33984 3.3418 3.3418 3.34375 3.3457 3.34766 3.34961 3.35156 3.35352 3.35547 3.35742 3.35938 3.36133 3.36328 3.36523 3.36719 3.36914 3.37305 3.375 3.37695 3.37891 3.38086 3.38281 3.38672 3.38867 3.39063 3.39258 3.39648 3.39844 3.40039 3.4043 3.40625 3.41016 3.41211 3.41406 3.41797 3.41992 3.42383 3.42578 3.42969 3.43164 3.43555 3.4375 3.44141 3.44531 3.44727 3.45117 3.45313 3.45703 3.46094 3.46289 3.4668 3.4707 3.47461 3.47656 3.48047 3.48438 3.48828 3.49219 3.49609 3.49805 3.50195 3.50586 3.50977 3.51367 3.51758 3.52148 3.52539 3.50781 3.48047 3.45313 3.42578 3.39844 3.37305 3.34766 3.32227 3.29883 3.27344 3.25 3.22656 3.20313 3.20508 3.20898 3.2207 3.24414 28.5 28.5313 28.5469 28.5781 28.5938 28.625 28.6563 28.6719 28.7031 28.7344 28.7656 28.7813 28.8125 28.8438 28.875 28.9063 28.9219 28.9531 28.9844 29.0156 29.0469 29.0781 29.1094 29.125 29.1563 29.1875 29.2188 3.09375 3.0918 3.0918 3.05078 3.05078 3.04883 3.04883 3.04688 3.04688 3.04492 3.04492 3.04297 3.04297 3.04297 3.04102 3.04102 3.04102 3.03906 3.03906 3.03906 3.03711 3.03711 3.03711 3.03516 3.03516 3.03516 3.03516 3.0332 3.0332 3.0332 3.0332 3.0332 3.03125 3.03125 3.03125 3.0332 3.03711 3.03906 3.04297 3.04688 3.05078 3.05469 3.05859 3.0625 3.06641 3.06836 3.06836 3.06836 3.06836 3.06836 3.06836 3.06836 3.06836 3.06836 3.06836 3.06836 3.06836 3.06836 3.06836 3.06836 3.06836 3.06836 3.06836 3.07031 3.07031 3.07031 3.07031 3.07031 3.07031 3.07031 3.07031 3.07227 3.07422 3.08008 3.08398 3.08789 3.0918 3.0957 3.10156 3.10547 3.10938 3.11328 3.11914 3.12305 3.12695 3.13086 3.13672 3.14063 3.14453 3.15039 3.1543 3.1582 3.16406 3.16797 3.17188 3.17773 3.18164 3.18555 3.19141 3.19531 3.19922 3.20508 3.20898 3.21484 3.21875 3.22266 3.22852 3.23242 3.23828 3.24219 3.24805 3.25195 3.25781 3.26172 3.26758 3.27148 3.27539 3.28125 3.28516 7.78125 7.79297 7.80469 7.81641 7.82813 7.83984 7.85156 7.86328 7.875 7.88672
3.46484 3.46094 3.45898 3.45508 3.45313 3.44922 3.44727 3.44531 3.44141 3.43945 3.4375 3.43359 3.43164 3.42969 3.42578 3.42383 3.42188 3.41797 3.41602 3.41406 3.41211 3.4082 3.40625 3.4043 3.40234 3.40039 3.39648 3.39453 3.39258 3.39063 3.38867 3.38672 3.38477 3.38281 3.37891 3.37695 3.375 3.37305 3.37109 3.36914 3.36719 3.36523 3.36328 3.36133 3.35938 3.35938 3.35742 3.35547 3.35352 3.35156 3.34961 3.34766 3.3457 3.3457 3.34375 3.3418 3.33984 3.33984 3.33789 3.33594 3.33398 3.33398 3.33203 3.33008 3.33008 3.32813 3.32617 3.32617 3.32422 3.32422 3.32227 3.32031 3.32031 3.31836 3.31836 3.31641 3.31641 3.31445 3.31445 3.31445 3.3125 3.3125 3.31055 3.31055 3.31055 3.30859 3.30859 3.30859 3.30664 3.30664 3.30664 3.30469 3.30469 3.30469 3.30469 3.30469 3.30273 3.30273 3.30273 3.30273 3.30273 3.30273 3.30273 3.30273 3.30273 3.30273 3.30273 3.30273 3.30273 3.30273 3.30273 3.30273 3.30273 3.30273 3.30273 3.30273 3.30273 3.30273 3.30469 3.30469 3.30469 3.30469 3.30664 3.30664 3.30664 3.30664 3.30859 3.30859 3.30859 3.31055 3.31055 3.3125 3.3125 3.3125 3.31445 3.31445 3.31641 3.31641 3.31836 3.31836 3.32031 3.32031 3.32227 3.32422 3.32422 3.32617 3.32617 3.32813 3.33008 3.33203 3.33203 3.33398 3.33594 3.33594 3.33789 3.33984 3.3418 3.34375 3.3457 3.3457 3.34766 3.34961 3.35156 3.35352 3.35547 3.35742 3.35938 3.36133 3.36328 3.36523 3.36719 3.36914 3.37109 3.37305 3.37695 3.37891 3.38086 3.38281 3.38477 3.38867 3.39063 3.39258 3.39453 3.39844 3.40039 3.40234 3.40625 3.4082 3.41016 3.41406 3.41602 3.41992 3.42188 3.42383 3.42773 3.42969 3.43359 3.43555 3.43945 3.44336 3.44531 3.44922 3.45117 3.45508 3.45898 3.46094 3.46484 3.46875 3.4707 3.47461 3.47852 3.48242 3.48438 3.48828 3.49219 3.49609 3.5 3.50391 3.50781 3.50977 3.51367 3.51758 3.52148 3.52539 3.5293 3.50781 3.48047 3.45313 3.42578 3.40039 3.37305 3.34766 3.32422 3.29883 3.27539 3.25 3.22852 3.20508 3.20898 3.21289 3.22656 3.25195 28.2656 28.2969 28.3281 28.3438 28.375 28.3906 28.4219 28.4531 28.4688 28.5 28.5313 28.5625 28.5781 28.6094 28.6406 28.6719 28.6875 28.7188 28.75 28.7813 28.8125 28.8438 28.875 28.8906 28.9219 28.9531 28.9844 3.0957 3.0957 3.09375 3.05469 3.05273 3.05273 3.05078 3.05078 3.04883 3.04883 3.04688 3.04688 3.04688 3.04492 3.04492 3.04297 3.04297 3.04297 3.04102 3.04102 3.04102 3.03906 3.03906 3.03906 3.03906 3.03711 3.03711 3.03711 3.03711 3.03516 3.03516 3.03516 3.03516 3.03516 3.0332 3.0332 3.0332 3.0332 3.0332 3.0332 3.0332 3.0332 3.03516 3.03906 3.04297 3.04688 3.05078 3.05469 3.05859 3.0625 3.06641 3.07031 3.07031 3.07031 3.07031 3.07031 3.07031 3.07227 3.07227 3.07227 3.07227 3.07227 3.07227 3.07227 3.07227 3.07227 3.07227 3.07227 3.07422 3.07422 3.07422 3.07422 3.07422 3.07422 3.07617 3.07617 3.07617 3.07617 3.07617 3.08008 3.08398 3.08984 3.09375 3.09766 3.10156 3.10742 3.11133 3.11523 3.11914 3.125 3.12891 3.13281 3.13867 3.14258 3.14648 3.15234 3.15625 3.16016 3.16602 3.16992 3.17383 3.17969 3.18359 3.1875 3.19336 3.19727 3.20313 3.20703 3.21094 3.2168 3.2207 3.22656 3.23047 3.23633 3.24023 3.24609 3.25 3.25586 3.25977 3.26563 3.26953 3.27539 3.2793 3.28516 3.28906 7.83984 7.85547 7.87109 7.88281
3.46875 3.46484 3.46289 3.45898 3.45703 3.45508 3.45117 3.44922 3.44531 3.44336 3.44141 3.4375 3.43555 3.43359 3.42969 3.42773 3.42578 3.42188 3.41992 3.41797 3.41602 3.41211 3.41016 3.4082 3.40625 3.4043 3.40039 3.39844 3.39648 3.39453 3.39258 3.39063 3.38867 3.38672 3.38281 3.38086 3.37891 3.37695 3.375 3.37305 3.37109 3.36914 3.36719 3.36523 3.36523 3.36328 3.36133 3.35938 3.35742 3.35547 3.35352 3.35156 3.35156 3.34961 3.34766 3.3457 3.34375 3.34375 3.3418 3.33984 3.33789 3.33789 3.33594 3.33398 3.33398 3.33203 3.33008 3.33008 3.32813 3.32813 3.32617 3.32422 3.32422 3.32227 3.32227 3.32031 3.32031 3.31836 3.31836 3.31836 3.31641 3.31641 3.31445 3.31445 3.31445 3.3125 3.3125 3.3125 3.31055 3.31055 3.31055 3.31055 3.30859 3.30859 3.30859 3.30859 3.30664 3.30664 3.30664 3.30664 3.30664 3.30664 3.30664 3.30664 3.30664 3.30664 3.30664 3.30664 3.30664 3.30664 3.30664 3.30664 3.30664 3.30664 3.30664 3.30664 3.30664 3.30859 3.30859 3.30859 3.30859 3.30859 3.31055 3.31055 3.31055 3.31055 3.3125 3.3125 3.3125 3.31445 3.31445 3.31641 3.31641 3.31641 3.31836 3.31836 3.32031 3.32031 3.32227 3.32227 3.32422 3.32422 3.32617 3.32813 3.32813 3.33008 3.33203 3.33203 3.33398 3.33594 3.33594 3.33789 3.33984 3.3418 3.3418 3.34375 3.3457 3.34766 3.34961 3.35156 3.35156 3.35352 3.35547 3.35742 3.35938 3.36133 3.36328 3.36523 3.36719 3.36914 3.37109 3.37305 3.37695 3.37891 3.38086 3.38281 3.38477 3.38672 3.38867 3.39258 3.39453 3.39648 3.39844 3.40234 3.4043 3.40625 3.41016 3.41211 3.41406 3.41797 3.41992 3.42383 3.42578 3.42969 3.43164 3.43555 3.4375 3.44141 3.44336 3.44727 3.44922 3.45313 3.45703 3.45898 3.46289 3.4668 3.46875 3.47266 3.47656 3.47852 3.48242 3.48633 3.49023 3.49414 3.49609 3.5 3.50391 3.50781 3.51172 3.51563 3.51953 3.52344 3.52734 3.53125 3.53516 3.50977 3.48242 3.45508 3.42773 3.40039 3.375 3.34961 3.32422 3.29883 3.27539 3.25195 3.22852 3.20898 3.21289 3.2168 3.23242 3.25781 28.0469 28.0625 28.0938 28.125 28.1406 28.1719 28.2031 28.2188 28.25 28.2813 28.2969 28.3281 28.3594 28.3906 28.4063 28.4375 28.4688 28.5 28.5156 28.5469 28.5781 28.6094 28.6406 28.6719 28.7031 28.7344 3.10156 3.09961 3.09961 3.09766 3.05664 3.05664 3.05469 3.05469 3.05273 3.05273 3.05078 3.05078 3.04883 3.04883 3.04883 3.04688 3.04688 3.04688 3.04492 3.04492 3.04492 3.04297 3.04297 3.04297 3.04102 3.04102 3.04102 3.04102 3.03906 3.03906 3.03906 3.03906 3.03906 3.03711 3.03711 3.03711 3.03711 3.03711 3.03711 3.03516 3.03516 3.03516 3.03516 3.03516 3.03516 3.03516 3.03516 3.03516 3.03516 3.03516 3.03711 3.04102 3.04688 3.05078 3.05469 3.05859 3.0625 3.06641 3.07031 3.07422 3.07422 3.07422 3.07422 3.07422 3.07422 3.07617 3.07617 3.07617 3.07617 3.07617 3.07617 3.07617 3.07813 3.07813 3.07813 3.07813 3.07813 3.07813 3.08008 3.08008 3.08008 3.08008 3.08203 3.08203 3.08203 3.08203 3.08398 3.08594 3.08984 3.0957 3.09961 3.10352 3.10938 3.11328 3.11719 3.12109 3.12695 3.13086 3.13477 3.14063 3.14453 3.14844 3.1543 3.1582 3.16406 3.16797 3.17188 3.17773 3.18164 3.18555 3.19141 3.19531 3.20117 3.20508 3.21094 3.21484 3.21875 3.22461 3.22852 3.23438 3.23828 3.24414 3.24805 3.25391 3.25781 3.26367 3.29688 7.86719 7.87891 7.89453
3.47266 3.46875 3.4668 3.46289 3.46094 3.45898 3.45508 3.45313 3.44922 3.44727 3.44531 3.44141 3.43945 3.4375 3.43359 3.43164 3.42969 3.42578 3.42383 3.42188 3.41992 3.41602 3.41406 3.41211 3.41016 3.4082 3.4043 3.40234 3.40039 3.39844 3.39648 3.39453 3.39258 3.39063 3.38867 3.38477 3.38281 3.38086 3.37891 3.37695 3.375 3.37305 3.37109 3.37109 3.36914 3.36719 3.36523 3.36328 3.36133 3.35938 3.35742 3.35547 3.35547 3.35352 3.35156 3.34961 3.34766 3.34766 3.3457 3.34375 3.3418 3.3418 3.33984 3.33789 3.33789 3.33594 3.33398 3.33398 3.33203 3.33203 3.33008 3.33008 3.32813 3.32617 3.32617 3.32422 3.32422 3.32422 3.32227 3.32227 3.32031 3.32031 3.31836 3.31836 3.31836 3.31641 3.31641 3.31641 3.31445 3.31445 3.31445 3.31445 3.3125 3.3125 3.3125 3.3125 3.3125 3.31055 3.31055 3.31055 3.31055 3.31055 3.31055 3.31055 3.31055 3.31055 3.31055 3.31055 3.31055 3.31055 3.31055 3.31055 3.31055 3.31055 3.31055 3.31055 3.31055 3.3125 3.3125 3.3125 3.3125 3.3125 3.31445 3.31445 3.31445 3.31641 3.31641 3.31641 3.31836 3.31836 3.31836 3.32031 3.32031 3.32031 3.32227 3.32227 3.32422 3.32422 3.32617 3.32617 3.32813 3.33008 3.33008 3.33203 3.33203 3.33398 3.33594 3.33594 3.33789 3.33984 3.33984 3.3418 3.34375 3.3457 3.3457 3.34766 3.34961 3.35156 3.35352 3.35547 3.35742 3.35742 3.35938 3.36133 3.36328 3.36523 3.36719 3.36914 3.37109 3.37305 3.375 3.37891 3.38086 3.38281 3.38477 3.38672 3.38867 3.39063 3.39453 3.39648 3.39844 3.40039 3.4043 3.40625 3.4082 3.41211 3.41406 3.41602 3.41992 3.42188 3.42383 3.42773 3.42969 3.43359 3.43555 3.43945 3.44141 3.44531 3.44727 3.45117 3.45508 3.45703 3.46094 3.46289 3.4668 3.4707 3.47266 3.47656 3.48047 3.48438 3.48633 3.49023 3.49414 3.49805 3.50195 3.50391 3.50781 3.51172 3.51563 3.51953 3.52344 3.52734 3.53125 3.53516 3.53906 3.50977 3.48242 3.45508 3.42773 3.40234 3.375 3.34961 3.32617 3.30078 3.27734 3.25195 3.22852 3.21289 3.2168 3.2207 3.24023 3.26563 27.8281 27.8438 27.875 27.8906 27.9219 27.9531 27.9688 28 28.0313 28.0469 28.0781 28.1094 28.125 28.1563 28.1875 28.2188 28.25 28.2656 28.2969 28.3281 28.3594 28.3906 28.4063 28.4375 28.4688 28.5 3.10352 3.10352 3.10156 3.10156 3.06055 3.05859 3.05859 3.05664 3.05664 3.05469 3.05469 3.05273 3.05273 3.05273 3.05078 3.05078 3.04883 3.04883 3.04883 3.04688 3.04688 3.04688 3.04492 3.04492 3.04492 3.04492 3.04297 3.04297 3.04297 3.04297 3.04102 3.04102 3.04102 3.04102 3.04102 3.03906 3.03906 3.03906 3.03906 3.03906 3.03906 3.03906 3.03906 3.03711 3.03711 3.03711 3.03711 3.03711 3.03711 3.03711 3.03711 3.03711 3.03711 3.03711 3.03711 3.03711 3.03711 3.04297 3.04688 3.05078 3.05469 3.05859 3.0625 3.06641 3.07031 3.07422 3.07813 3.07813 3.07813 3.07813 3.08008 3.08008 3.08008 3.08008 3.08008 3.08008 3.08203 3.08203 3.08203 3.08203 3.08398 3.08398 3.08398 3.08398 3.08398 3.08594 3.08594 3.08594 3.08789 3.08789 3.08789 3.08789 3.08984 3.08984 3.09375 3.09766 3.10156 3.10547 3.11133 3.11523 3.11914 3.125 3.12891 3.13281 3.13867 3.14258 3.14844 3.15234 3.15625 3.16211 3.16602 3.16992 3.17578 3.17969 3.18555 3.18945 3.19336 3.19922 3.20313 3.20898 3.21289 3.21875 3.22266 3.22852 3.23242 3.23828 3.24219 33.7813 33.8125 33.875
3.47656 3.47266 3.4707 3.46875 3.46484 3.46289 3.45898 3.45703 3.45508 3.45117 3.44922 3.44531 3.44336 3.44141 3.4375 3.43555 3.43359 3.43164 3.42773 3.42578 3.42383 3.42188 3.41797 3.41602 3.41406 3.41211 3.41016 3.40625 3.4043 3.40234 3.40039 3.39844 3.39648 3.39453 3.39258 3.39063 3.38867 3.38672 3.38281 3.38086 3.37891 3.37891 3.37695 3.375 3.37305 3.37109 3.36914 3.36719 3.36523 3.36328 3.36133 3.35938 3.35938 3.35742 3.35547 3.35352 3.35156 3.35156 3.34961 3.34766 3.34766 3.3457 3.34375 3.3418 3.3418 3.33984 3.33984 3.33789 3.33594 3.33594 3.33398 3.33398 3.33203 3.33203 3.33008 3.33008 3.32813 3.32813 3.32617 3.32617 3.32422 3.32422 3.32227 3.32227 3.32227 3.32031 3.32031 3.32031 3.31836 3.31836 3.31836 3.31836 3.31641 3.31641 3.31641 3.31641 3.31641 3.31445 3.31445 3.31445 3.31445 3.31445 3.31445 3.31445 3.31445 3.31445 3.31445 3.31445 3.31445 3.31445 3.31445 3.31445 3.31445 3.31445 3.31445 3.31445 3.31641 3.31641 3.31641 3.31641 3.31641 3.31836 3.31836 3.31836 3.31836 3.32031 3.32031 3.32031 3.32227 3.32227 3.32227 3.32422 3.32422 3.32617 3.32617 3.32813 3.32813 3.32813 3.33008 3.33203 3.33203 3.33398 3.33398 3.33594 3.33594 3.33789 3.33984 3.33984 3.3418 3.34375 3.3457 3.3457 3.34766 3.34961 3.35156 3.35156 3.35352 3.35547 3.35742 3.35938 3.36133 3.36328 3.36523 3.36719 3.36719 3.36914 3.37109 3.37305 3.37695 3.37891 3.38086 3.38281 3.38477 3.38672 3.38867 3.39063 3.39258 3.39648 3.39844 3.40039 3.40234 3.40625 3.4082 3.41016 3.41211 3.41602 3.41797 3.41992 3.42383 3.42578 3.42969 3.43164 3.43555 3.4375 3.44141 3.44336 3.44727 3.44922 3.45313 3.45508 3.45898 3.46094 3.46484 3.46875 3.4707 3.47461 3.47852 3.48047 3.48438 3.48828 3.49219 3.49414 3.49805 3.50195 3.50586 3.50977 3.51367 3.51563 3.51953 3.52344 3.52734 3.53125 3.53516 3.53906 3.54102 3.51172 3.48438 3.45703 3.42969 3.40234 3.37695 3.35156 3.32617 3.30078 3.27734 3.25391 3.23047 3.2168 3.2207 3.22461 3.24609 3.27344 27.6094 27.625 27.6563 27.6875 27.7031 27.7344 27.75 27.7813 27.8125 27.8281 27.8594 27.8906 27.9063 27.9375 27.9688 28 28.0156 28.0469 28.0781 28.1094 28.1406 28.1563 28.1875 28.2188 28.25 28.2813 3.10742 3.10547 3.10547 3.10352 3.0625 3.0625 3.06055 3.06055 3.05859 3.05859 3.05664 3.05664 3.05664 3.05469 3.05469 3.05273 3.05273 3.05273 3.05078 3.05078 3.05078 3.04883 3.04883 3.04883 3.04688 3.04688 3.04688 3.04688 3.04492 3.04492 3.04492 3.04492 3.04492 3.04297 3.04297 3.04297 3.04297 3.04297 3.04297 3.04102 3.04102 3.04102 3.04102 3.04102 3.04102 3.04102 3.04102 3.04102 3.04102 3.04102 3.04102 3.04102 3.04102 3.04102 3.04102 3.04102 3.04102 3.04102 3.04102 3.04102 3.04102 3.04102 3.04102 3.04297 3.04688 3.05078 3.05469 3.05859 3.0625 3.06836 3.07227 3.07617 3.08008 3.08398 3.08398 3.08398 3.08398 3.08398 3.08594 3.08594 3.08594 3.08594 3.08594 3.08789 3.08789 3.08789 3.08789 3.08984 3.08984 3.08984 3.0918 3.0918 3.0918 3.0918 3.09375 3.09375 3.09375 3.0957 3.0957 3.0957 3.09766 3.09961 3.10547 3.10938 3.11328 3.11914 3.12305 3.12695 3.13281 3.13672 3.14063 3.14648 3.15039 3.15625 3.16016 3.16406 3.16992 3.17383 3.17969 3.18359 3.1875 3.19336 3.19727 3.20313 3.20703 3.21289 3.2168 3.23633 33.5625 33.5938
3.48047 3.47852 3.47461 3.47266 3.46875 3.4668 3.46289 3.46094 3.45898 3.45508 3.45313 3.45117 3.44727 3.44531 3.44336 3.43945 3.4375 3.43555 3.43164 3.42969 3.42773 3.42578 3.42188 3.41992 3.41797 3.41602 3.41406 3.41211 3.4082 3.40625 3.4043 3.40234 3.40039 3.39844 3.39648 3.39453 3.39258 3.39063 3.38867 3.38672 3.38477 3.38281 3.38086 3.37891 3.37695 3.375 3.37305 3.37109 3.36914 3.36719 3.36523 3.36523 3.36328 3.36133 3.35938 3.35742 3.35742 3.35547 3.35352 3.35156 3.35156 3.34961 3.34766 3.34766 3.3457 3.34375 3.34375 3.3418 3.33984 3.33984 3.33789 3.33789 3.33594 3.33594 3.33398 3.33398 3.33203 3.33203 3.33008 3.33008 3.32813 3.32813 3.32813 3.32617 3.32617 3.32422 3.32422 3.32422 3.32422 3.32227 3.32227 3.32227 3.32031 3.32031 3.32031 3.32031 3.32031 3.32031 3.31836 3.31836 3.31836 3.31836 3.31836 3.31836 3.31836 3.31836 3.31836 3.31836 3.31836 3.31836 3.31836 3.31836 3.31836 3.31836 3.31836 3.31836 3.32031 3.32031 3.32031 3.32031 3.32031 3.32227 3.32227 3.32227 3.32227 3.32422 3.32422 3.32422 3.32617 3.32617 3.32617 3.32813 3.32813 3.33008 3.33008 3.33203 3.33203 3.33398 3.33398 3.33594 3.33594 3.33789 3.33789 3.33984 3.3418 3.3418 3.34375 3.3457 3.3457 3.34766 3.34961 3.34961 3.35156 3.35352 3.35547 3.35742 3.35742 3.35938 3.36133 3.36328 3.36523 3.36719 3.36914 3.37109 3.37305 3.375 3.37695 3.37891 3.38086 3.38281 3.38477 3.38672 3.38867 3.39063 3.39258 3.39453 3.39844 3.40039 3.40234 3.4043 3.4082 3.41016 3.41211 3.41406 3.41797 3.41992 3.42188 3.42578 3.42773 3.42969 3.43359 3.43555 3.43945 3.44141 3.44531 3.44727 3.45117 3.45313 3.45703 3.45898 3.46289 3.4668 3.46875 3.47266 3.47656 3.47852 3.48242 3.48633 3.48828 3.49219 3.49609 3.5 3.50391 3.50586 3.50977 3.51367 3.51758 3.52148 3.52539 3.5293 3.5332 3.53711 3.53906 3.54297 3.54102 3.51367 3.48438 3.45703 3.42969 3.4043 3.37695 3.35156 3.32813 3.30273 3.27734 3.25391 3.23047 3.22266 3.22656 3.23047 3.25391 3.2793 27.3906 27.4219 27.4375 27.4688 27.4844 27.5156 27.5469 27.5625 27.5938 27.625 27.6406 27.6719 27.7031 27.7188 27.75 27.7813 27.7969 27.8281 27.8594 27.8906 27.9219 27.9375 27.9688 28 6.37109 6.37891 3.10938 3.10938 3.10742 3.10742 3.06641 3.06445 3.06445 3.0625 3.0625 3.06055 3.06055 3.06055 3.05859 3.05859 3.05664 3.05664 3.05664 3.05469 3.05469 3.05469 3.05273 3.05273 3.05273 3.05078 3.05078 3.05078 3.04883 3.04883 3.04883 3.04883 3.04688 3.04688 3.04688 3.04688 3.04688 3.04688 3.04492 3.04492 3.04492 3.04492 3.04492 3.04492 3.04492 3.04297 3.04297 3.04297 3.04297 3.04297 3.04297 3.04297 3.04297 3.04297 3.04297 3.04297 3.04297 3.04297 3.04297 3.04297 3.04297 3.04297 3.04297 3.04297 3.04297 3.04492 3.04492 3.04492 3.04492 3.04492 3.04492 3.04492 3.04883 3.05273 3.05664 3.06055 3.06445 3.06836 3.07422 3.07813 3.08203 3.08594 3.08789 3.08984 3.08984 3.08984 3.08984 3.0918 3.0918 3.0918 3.0918 3.09375 3.09375 3.09375 3.0957 3.0957 3.0957 3.0957 3.09766 3.09766 3.09766 3.09961 3.09961 3.10156 3.10156 3.10156 3.10352 3.10352 3.10352 3.10547 3.10742 3.11328 3.11719 3.12109 3.12695 3.13086 3.13477 3.14063 3.14453 3.15039 3.1543 3.1582 3.16406 3.16797 3.17383 3.17773 3.18359 3.1875 3.19141 3.19727 3.25586 33.3438
3.48438 3.48242 3.47852 3.47656 3.47266 3.4707 3.46875 3.46484 3.46289 3.45898 3.45703 3.45508 3.45117 3.44922 3.44727 3.44336 3.44141 3.43945 3.4375 3.43359 3.43164 3.42969 3.42773 3.42383 3.42188 3.41992 3.41797 3.41602 3.41211 3.41016 3.4082 3.40625 3.4043 3.40234 3.40039 3.39844 3.39648 3.39453 3.39258 3.39063 3.38867 3.38672 3.38477 3.38281 3.38086 3.37891 3.37695 3.375 3.37305 3.37109 3.37109 3.36914 3.36719 3.36523 3.36328 3.36133 3.36133 3.35938 3.35742 3.35547 3.35547 3.35352 3.35156 3.35156 3.34961 3.34766 3.34766 3.3457 3.3457 3.34375 3.3418 3.3418 3.33984 3.33984 3.33789 3.33789 3.33594 3.33594 3.33398 3.33398 3.33203 3.33203 3.33203 3.33008 3.33008 3.33008 3.32813 3.32813 3.32813 3.32617 3.32617 3.32617 3.32617 3.32422 3.32422 3.32422 3.32422 3.32422 3.32422 3.32227 3.32227 3.32227 3.32227 3.32227 3.32227 3.32227 3.32227 3.32227 3.32227 3.32227 3.32227 3.32227 3.32227 3.32227 3.32227 3.32422 3.32422 3.32422 3.32422 3.32422 3.32617 3.32617 3.32617 3.32617 3.32813 3.32813 3.32813 3.33008 3.33008 3.33008 3.33203 3.33203 3.33203 3.33398 3.33398 3.33594 3.33594 3.33789 3.33789 3.33984 3.33984 3.3418 3.34375 3.34375 3.3457 3.3457 3.34766 3.34961 3.34961 3.35156 3.35352 3.35547 3.35547 3.35742 3.35938 3.36133 3.36328 3.36328 3.36523 3.36719 3.36914 3.37109 3.37305 3.375 3.37695 3.37891 3.38086 3.38281 3.38477 3.38672 3.38867 3.39063 3.39258 3.39453 3.39844 3.40039 3.40234 3.4043 3.40625 3.4082 3.41211 3.41406 3.41602 3.41992 3.42188 3.42383 3.42773 3.42969 3.43164 3.43555 3.4375 3.44141 3.44336 3.44727 3.44922 3.45313 3.45508 3.45898 3.46094 3.46484 3.4668 3.4707 3.47461 3.47656 3.48047 3.48438 3.48633 3.49023 3.49414 3.49805 3.5 3.50391 3.50781 3.51172 3.51563 3.51758 3.52148 3.52539 3.5293 3.5332 3.53711 3.54102 3.54492 3.54883 3.54297 3.51367 3.48633 3.45898 3.43164 3.4043 3.37891 3.35352 3.32813 3.30273 3.2793 3.25586 3.23242 3.22656 3.23047 3.23633 3.26172 3.28711 6.17969 6.18359 6.19141 6.19531 6.20313 6.20703 6.21484 6.21875 6.22656 6.23047 6.23828 6.24219 6.25 6.25391 6.26172 6.26563 6.27344 6.28125 6.28906 6.30078 6.30859 6.31641 6.32422 6.33594 6.34375 6.35156 3.11328 3.11328 3.11133 3.07031 3.07031 3.06836 3.06836 3.06641 3.06641 3.06445 3.06445 3.0625 3.0625 3.06055 3.06055 3.06055 3.05859 3.05859 3.05664 3.05664 3.05664 3.05469 3.05469 3.05469 3.05469 3.05273 3.05273 3.05273 3.05078 3.05078 3.05078 3.05078 3.05078 3.04883 3.04883 3.04883 3.04883 3.04883 3.04883 3.04688 3.04688 3.04688 3.04688 3.04688 3.04688 3.04688 3.04688 3.04688 3.04688 3.04688 3.04688 3.04688 3.04688 3.04688 3.04688 3.04688 3.04688 3.04688 3.04688 3.04688 3.04688 3.04688 3.04688 3.04688 3.04688 3.04688 3.04688 3.04688 3.04883 3.04883 3.04883 3.04883 3.04883 3.04883 3.04883 3.05078 3.05078 3.05469 3.05859 3.0625 3.06641 3.07227 3.07617 3.08008 3.08398 3.08789 3.09375 3.0957 3.0957 3.0957 3.0957 3.09766 3.09766 3.09766 3.09961 3.09961 3.09961 3.10156 3.10156 3.10156 3.10352 3.10352 3.10352 3.10547 3.10547 3.10547 3.10742 3.10742 3.10938 3.10938 3.10938 3.11133 3.11133 3.11328 3.11328 3.11719 3.12109 3.125 3.13086 3.13477 3.13867 3.14453 3.14844 3.1543 3.1582 3.16406 3.16797 3.17188 3.17969 3.27539
3.48828 3.48633 3.48242 3.48047 3.47852 3.47461 3.47266 3.46875 3.4668 3.46484 3.46094 3.45898 3.45703 3.45313 3.45117 3.44922 3.44531 3.44336 3.44141 3.4375 3.43555 3.43359 3.43164 3.42969 3.42578 3.42383 3.42188 3.41992 3.41797 3.41406 3.41211 3.41016 3.4082 3.40625 3.4043 3.40234 3.40039 3.39844 3.39648 3.39453 3.39258 3.39063 3.38867 3.38672 3.38477 3.38281 3.38086 3.37891 3.37695 3.37695 3.375 3.37305 3.37109 3.36914 3.36719 3.36719 3.36523 3.36328 3.36133 3.36133 3.35938 3.35742 3.35547 3.35547 3.35352 3.35156 3.35156 3.34961 3.34961 3.34766 3.3457 3.3457 3.34375 3.34375 3.3418 3.3418 3.33984 3.33984 3.33789 3.33789 3.33789 3.33594 3.33594 3.33398 3.33398 3.33398 3.33203 3.33203 3.33203 3.33008 3.33008 3.33008 3.33008 3.33008 3.32813 3.32813 3.32813 3.32813 3.32813 3.32813 3.32617 3.32617 3.32617 3.32617 3.32617 3.32617 3.32617 3.32617 3.32617 3.32617 3.32617 3.32617 3.32617 3.32617 3.32813 3.32813 3.32813 3.32813 3.32813 3.32813 3.33008 3.33008 3.33008 3.33008 3.33203 3.33203 3.33203 3.33398 3.33398 3.33398 3.33594 3.33594 3.33789 3.33789 3.33789 3.33984 3.33984 3.3418 3.3418 3.34375 3.3457 3.3457 3.34766 3.34766 3.34961 3.35156 3.35156 3.35352 3.35547 3.35547 3.35742 3.35938 3.36133 3.36133 3.36328 3.36523 3.36719 3.36914 3.37109 3.37109 3.37305 3.375 3.37695 3.37891 3.38086 3.38281 3.38477 3.38672 3.38867 3.39063 3.39258 3.39453 3.39648 3.40039 3.40234 3.4043 3.40625 3.4082 3.41211 3.41406 3.41602 3.41797 3.42188 3.42383 3.42578 3.42969 3.43164 3.43359 3.4375 3.43945 3.44141 3.44531 3.44727 3.45117 3.45313 3.45703 3.45898 3.46289 3.46484 3.46875 3.47266 3.47461 3.47852 3.48242 3.48438 3.48828 3.49219 3.49414 3.49805 3.50195 3.50586 3.50781 3.51172 3.51563 3.51953 3.52344 3.52734 3.53125 3.5332 3.53711 3.54102 3.54492 3.54883 3.55273 3.54297 3.51563 3.48633 3.45898 3.43359 3.40625 3.38086 3.35352 3.33008 3.30469 3.28125 3.25586 3.23242 3.23047 3.23438 3.24219 3.26758 6.14453 6.15234 6.16016 6.16797 6.17578 6.18359 6.19141 6.19922 6.20703 6.21484 6.22266 6.23047 6.23828 6.25 6.25781 6.26563 6.27344 6.28125 6.28906 6.30078 6.30859 6.31641 6.32422 6.33594 6.34375 6.35156 6.35938 3.11719 3.11523 3.11523 3.07422 3.07227 3.07227 3.07031 3.07031 3.06836 3.06836 3.06641 3.06641 3.06445 3.06445 3.06445 3.0625 3.0625 3.06055 3.06055 3.06055 3.05859 3.05859 3.05859 3.05664 3.05664 3.05664 3.05664 3.05469 3.05469 3.05469 3.05469 3.05273 3.05273 3.05273 3.05273 3.05273 3.05078 3.05078 3.05078 3.05078 3.05078 3.05078 3.05078 3.05078 3.04883 3.04883 3.04883 3.04883 3.04883 3.04883 3.04883 3.04883 3.04883 3.04883 3.04883 3.04883 3.04883 3.04883 3.04883 3.04883 3.04883 3.04883 3.04883 3.05078 3.05078 3.05078 3.05078 3.05078 3.05078 3.05078 3.05078 3.05078 3.05273 3.05273 3.05273 3.05273 3.05273 3.05273 3.05469 3.05469 3.05469 3.05469 3.05664 3.05664 3.06055 3.06445 3.07031 3.07422 3.07813 3.08203 3.08789 3.0918 3.0957 3.10156 3.10156 3.10156 3.10352 3.10352 3.10352 3.10547 3.10547 3.10547 3.10742 3.10742 3.10938 3.10938 3.10938 3.11133 3.11133 3.11133 3.11328 3.11328 3.11523 3.11523 3.11719 3.11719 3.11719 3.11914 3.11914 3.12109 3.12109 3.12305 3.125 3.12891 3.13477 3.13867 3.14453 3.14844 3.1543 3.19922
3.49414 3.49023 3.48828 3.48438 3.48242 3.47852 3.47656 3.47461 3.4707 3.46875 3.46484 3.46289 3.46094 3.45703 3.45508 3.45313 3.44922 3.44727 3.44531 3.44336 3.43945 3.4375 3.43555 3.43359 3.42969 3.42773 3.42578 3.42383 3.42188 3.41992 3.41797 3.41406 3.41211 3.41016 3.4082 3.40625 3.4043 3.40234 3.40039 3.39844 3.39648 3.39453 3.39258 3.39063 3.38867 3.38672 3.38477 3.38281 3.38281 3.38086 3.37891 3.37695 3.375 3.37305 3.37305 3.37109 3.36914 3.36719 3.36523 3.36523 3.36328 3.36133 3.36133 3.35938 3.35742 3.35742 3.35547 3.35352 3.35352 3.35156 3.35156 3.34961 3.34961 3.34766 3.34766 3.3457 3.3457 3.34375 3.34375 3.3418 3.3418 3.33984 3.33984 3.33984 3.33789 3.33789 3.33789 3.33594 3.33594 3.33594 3.33398 3.33398 3.33398 3.33398 3.33203 3.33203 3.33203 3.33203 3.33203 3.33203 3.33203 3.33203 3.33008 3.33008 3.33008 3.33008 3.33008 3.33008 3.33008 3.33008 3.33008 3.33008 3.33203 3.33203 3.33203 3.33203 3.33203 3.33203 3.33203 3.33398 3.33398 3.33398 3.33398 3.33594 3.33594 3.33594 3.33789 3.33789 3.33789 3.33984 3.33984 3.33984 3.3418 3.3418 3.34375 3.34375 3.3457 3.3457 3.34766 3.34766 3.34961 3.34961 3.35156 3.35352 3.35352 3.35547 3.35547 3.35742 3.35938 3.36133 3.36133 3.36328 3.36523 3.36719 3.36719 3.36914 3.37109 3.37305 3.375 3.37695 3.37891 3.37891 3.38086 3.38281 3.38477 3.38672 3.38867 3.39063 3.39258 3.39453 3.39844 3.40039 3.40234 3.4043 3.40625 3.4082 3.41016 3.41406 3.41602 3.41797 3.41992 3.42383 3.42578 3.42773 3.42969 3.43359 3.43555 3.43945 3.44141 3.44336 3.44727 3.44922 3.45313 3.45508 3.45898 3.46094 3.46484 3.4668 3.4707 3.47266 3.47656 3.48047 3.48242 3.48633 3.49023 3.49219 3.49609 3.5 3.50195 3.50586 3.50977 3.51367 3.51758 3.51953 3.52344 3.52734 3.53125 3.53516 3.53906 3.54297 3.54688 3.55078 3.55469 3.55859 3.54492 3.51563 3.48828 3.46094 3.43359 3.4082 3.38086 3.35547 3.33008 3.30469 3.28125 3.25781 3.23438 3.23438 3.23828 3.25 3.27539 6.15234 6.16016 6.16797 6.17578 6.18359 6.19141 6.19922 6.20703 6.21484 6.22266 6.23047 6.23828 6.25 6.25781 6.26563 6.27344 6.28125 6.28906 6.30078 6.30859 6.31641 6.32422 6.33203 6.35156 6.35938 6.36719 3.12109 3.11914 3.11914 3.11719 3.07617 3.07617 3.07422 3.07422 3.07227 3.07227 3.07031 3.07031 3.06836 3.06836 3.06836 3.06641 3.06641 3.06445 3.06445 3.06445 3.0625 3.0625 3.0625 3.06055 3.06055 3.06055 3.05859 3.05859 3.05859 3.05859 3.05664 3.05664 3.05664 3.05664 3.05664 3.05469 3.05469 3.05469 3.05469 3.05469 3.05469 3.05273 3.05273 3.05273 3.05273 3.05273 3.05273 3.05273 3.05273 3.05273 3.05273 3.05273 3.05273 3.05273 3.05273 3.05273 3.05273 3.05273 3.05273 3.05273 3.05273 3.05273 3.05273 3.05273 3.05273 3.05273 3.05273 3.05273 3.05273 3.05469 3.05469 3.05469 3.05469 3.05469 3.05469 3.05469 3.05664 3.05664 3.05664 3.05664 3.05664 3.05859 3.05859 3.05859 3.05859 3.05859 3.06055 3.06055 3.06055 3.0625 3.0625 3.06445 3.06836 3.07227 3.07813 3.08203 3.08594 3.08984 3.0957 3.09961 3.10352 3.10938 3.10938 3.10938 3.11133 3.11133 3.11133 3.11328 3.11328 3.11328 3.11523 3.11523 3.11719 3.11719 3.11914 3.11914 3.11914 3.12109 3.12109 3.12305 3.12305 3.125 3.125 3.12695 3.12695 3.12695 3.12891 3.12891 3.13086 3.13086 3.13477
3.49805 3.49414 3.49219 3.48828 3.48633 3.48438 3.48047 3.47852 3.47461 3.47266 3.4707 3.4668 3.46484 3.46289 3.45898 3.45703 3.45508 3.45117 3.44922 3.44727 3.44531 3.44141 3.43945 3.4375 3.43555 3.43164 3.42969 3.42773 3.42578 3.42383 3.42188 3.41992 3.41797 3.41406 3.41211 3.41016 3.4082 3.40625 3.4043 3.40234 3.40039 3.39844 3.39648 3.39453 3.39258 3.39063 3.39063 3.38867 3.38672 3.38477 3.38281 3.38086 3.37891 3.37891 3.37695 3.375 3.37305 3.37109 3.37109 3.36914 3.36719 3.36523 3.36523 3.36328 3.36133 3.36133 3.35938 3.35938 3.35742 3.35547 3.35547 3.35352 3.35352 3.35156 3.35156 3.34961 3.34961 3.34766 3.34766 3.3457 3.3457 3.3457 3.34375 3.34375 3.3418 3.3418 3.3418 3.33984 3.33984 3.33984 3.33984 3.33789 3.33789 3.33789 3.33789 3.33594 3.33594 3.33594 3.33594 3.33594 3.33594 3.33594 3.33594 3.33594 3.33594 3.33398 3.33398 3.33398 3.33398 3.33594 3.33594 3.33594 3.33594 3.33594 3.33594 3.33594 3.33594 3.33594 3.33789 3.33789 3.33789 3.33789 3.33984 3.33984 3.33984 3.33984 3.3418 3.3418 3.3418 3.34375 3.34375 3.3457 3.3457 3.3457 3.34766 3.34766 3.34961 3.34961 3.35156 3.35156 3.35352 3.35547 3.35547 3.35742 3.35742 3.35938 3.36133 3.36133 3.36328 3.36523 3.36719 3.36719 3.36914 3.37109 3.37305 3.37305 3.375 3.37695 3.37891 3.38086 3.38281 3.38477 3.38672 3.38867 3.39063 3.39258 3.39453 3.39648 3.39844 3.40039 3.40234 3.4043 3.40625 3.4082 3.41016 3.41211 3.41602 3.41797 3.41992 3.42188 3.42578 3.42773 3.42969 3.43164 3.43555 3.4375 3.43945 3.44336 3.44531 3.44922 3.45117 3.45508 3.45703 3.45898 3.46289 3.4668 3.46875 3.47266 3.47461 3.47852 3.48047 3.48438 3.48828 3.49023 3.49414 3.49805 3.5 3.50391 3.50781 3.51172 3.51367 3.51758 3.52148 3.52539 3.5293 3.5332 3.53516 3.53906 3.54297 3.54688 3.55078 3.55469 3.55859 3.5625 3.54688 3.51758 3.49023 3.46289 3.43555 3.4082 3.38281 3.35742 3.33203 3.30664 3.2832 3.25781 3.23438 3.23828 3.24219 3.25586 3.2832 26.5469 26.5781 26.5938 26.625 26.6406 26.6719 26.6875 26.7188 26.7344 6.25391 6.24609 6.25781 6.26563 6.27344 26.8906 6.30859 6.28906 6.30078 6.30859 6.31641 6.32422 6.33203 6.34375 27.1406 27.1563 27.1875 3.125 3.12305 3.12305 3.12109 3.08008 3.08008 3.07813 3.07617 3.07617 3.07422 3.07422 3.07422 3.07227 3.07227 3.07031 3.07031 3.06836 3.06836 3.06836 3.06641 3.06641 3.06641 3.06445 3.06445 3.06445 3.0625 3.0625 3.0625 3.0625 3.06055 3.06055 3.06055 3.06055 3.05859 3.05859 3.05859 3.05859 3.05859 3.05664 3.05664 3.05664 3.05664 3.05664 3.05664 3.05664 3.05664 3.05664 3.05469 3.05469 3.05469 3.05469 3.05469 3.05469 3.05469 3.05469 3.05469 3.05469 3.05469 3.05469 3.05469 3.05469 3.05469 3.05469 3.05664 3.05664 3.05664 3.05664 3.05664 3.05664 3.05664 3.05664 3.05664 3.05664 3.05859 3.05859 3.05859 3.05859 3.05859 3.05859 3.06055 3.06055 3.06055 3.06055 3.0625 3.0625 3.0625 3.0625 3.0625 3.06445 3.06445 3.06445 3.06641 3.06641 3.06641 3.06641 3.06836 3.06836 3.06836 3.07227 3.07617 3.08008 3.08594 3.08984 3.09375 3.09961 3.10352 3.10742 3.11328 3.11719 3.11719 3.11719 3.11914 3.11914 3.12109 3.12109 3.12109 3.12305 3.12305 3.125 3.125 3.12695 3.12695 3.12891 3.12891 3.12891 3.13086 3.13086 3.13281 3.13281 3.13477 3.13477
3.50195 3.5 3.49609 3.49414 3.49023 3.48828 3.48438 3.48242 3.48047 3.47656 3.47461 3.4707 3.46875 3.4668 3.46289 3.46094 3.45898 3.45703 3.45313 3.45117 3.44922 3.44727 3.44336 3.44141 3.43945 3.4375 3.43555 3.43164 3.42969 3.42773 3.42578 3.42383 3.42188 3.41992 3.41797 3.41406 3.41211 3.41016 3.4082 3.40625 3.4043 3.40234 3.40039 3.39844 3.39844 3.39648 3.39453 3.39258 3.39063 3.38867 3.38672 3.38477 3.38477 3.38281 3.38086 3.37891 3.37695 3.37695 3.375 3.37305 3.37109 3.37109 3.36914 3.36719 3.36719 3.36523 3.36328 3.36328 3.36133 3.36133 3.35938 3.35742 3.35742 3.35547 3.35547 3.35352 3.35352 3.35156 3.35156 3.35156 3.34961 3.34961 3.34766 3.34766 3.34766 3.3457 3.3457 3.3457 3.34375 3.34375 3.34375 3.34375 3.3418 3.3418 3.3418 3.3418 3.3418 3.33984 3.33984 3.33984 3.33984 3.33984 3.33984 3.33984 3.33984 3.33984 3.33984 3.33984 3.33984 3.33984 3.33984 3.33984 3.33984 3.33984 3.33984 3.33984 3.33984 3.3418 3.3418 3.3418 3.3418 3.34375 3.34375 3.34375 3.34375 3.3457 3.3457 3.3457 3.34766 3.34766 3.34766 3.34961 3.34961 3.35156 3.35156 3.35352 3.35352 3.35547 3.35547 3.35742 3.35742 3.35938 3.35938 3.36133 3.36328 3.36328 3.36523 3.36719 3.36719 3.36914 3.37109 3.37305 3.37305 3.375 3.37695 3.37891 3.38086 3.38086 3.38281 3.38477 3.38672 3.38867 3.39063 3.39258 3.39453 3.39648 3.39844 3.40039 3.40234 3.4043 3.40625 3.4082 3.41016 3.41211 3.41602 3.41797 3.41992 3.42188 3.42383 3.42773 3.42969 3.43164 3.43359 3.4375 3.43945 3.44141 3.44531 3.44727 3.45117 3.45313 3.45508 3.45898 3.46094 3.46484 3.4668 3.4707 3.47266 3.47656 3.48047 3.48242 3.48633 3.48828 3.49219 3.49609 3.49805 3.50195 3.50586 3.50781 3.51172 3.51563 3.51953 3.52344 3.52539 3.5293 3.5332 3.53711 3.54102 3.54492 3.54883 3.55273 3.55664 3.56055 3.56445 3.56836 3.54688 3.51953 3.49023 3.46289 3.43555 3.41016 3.38281 3.35742 3.33203 3.30859 3.2832 3.25977 3.24023 3.24414 3.24805 3.26367 3.28906 26.3438 26.375 26.3906 26.4219 26.4375 26.4688 6.24219 6.23438 6.23828 6.24609 6.25781 6.26563 26.6406 26.6719 26.6875 6.3125 6.30078 6.30859 6.31641 6.32422 6.33203 6.34375 6.35156 26.9375 26.9531 26.9844 3.12891 3.12695 3.125 3.125 3.08398 3.08203 3.08203 3.08008 3.08008 3.07813 3.07813 3.07617 3.07617 3.07422 3.07422 3.07227 3.07227 3.07227 3.07031 3.07031 3.07031 3.06836 3.06836 3.06836 3.06641 3.06641 3.06641 3.06445 3.06445 3.06445 3.06445 3.0625 3.0625 3.0625 3.0625 3.0625 3.06055 3.06055 3.06055 3.06055 3.06055 3.06055 3.05859 3.05859 3.05859 3.05859 3.05859 3.05859 3.05859 3.05859 3.05859 3.05859 3.05859 3.05859 3.05859 3.05859 3.05859 3.05859 3.05859 3.05859 3.05859 3.05859 3.05859 3.05859 3.05859 3.05859 3.05859 3.05859 3.06055 3.06055 3.06055 3.06055 3.06055 3.06055 3.06055 3.06055 3.0625 3.0625 3.0625 3.0625 3.0625 3.06445 3.06445 3.06445 3.06445 3.06445 3.06641 3.06641 3.06641 3.06641 3.06836 3.06836 3.06836 3.07031 3.07031 3.07031 3.07031 3.07227 3.07227 3.07227 3.07422 3.07422 3.07422 3.07617 3.07617 3.08008 3.08594 3.08984 3.09375 3.09961 3.10352 3.10742 3.11328 3.11719 3.12109 3.125 3.125 3.12695 3.12695 3.12891 3.12891 3.13086 3.13086 3.13086 3.13281 3.13281 3.13477 3.13477 3.13672 3.13672 3.13867
3.50586 3.50391 3.5 3.49805 3.49414 3.49219 3.49023 3.48633 3.48438 3.48047 3.47852 3.47656 3.47266 3.4707 3.46875 3.46484 3.46289 3.46094 3.45898 3.45508 3.45313 3.45117 3.44922 3.44531 3.44336 3.44141 3.43945 3.4375 3.43359 3.43164 3.42969 3.42773 3.42578 3.42383 3.42188 3.41992 3.41797 3.41602 3.41406 3.41211 3.41016 3.4082 3.40625 3.4043 3.40234 3.40039 3.39844 3.39648 3.39453 3.39258 3.39063 3.39063 3.38867 3.38672 3.38477 3.38281 3.38281 3.38086 3.37891 3.37695 3.37695 3.375 3.37305 3.37305 3.37109 3.36914 3.36914 3.36719 3.36523 3.36523 3.36328 3.36328 3.36133 3.36133 3.35938 3.35938 3.35742 3.35742 3.35547 3.35547 3.35352 3.35352 3.35352 3.35156 3.35156 3.34961 3.34961 3.34961 3.34961 3.34766 3.34766 3.34766 3.34766 3.3457 3.3457 3.3457 3.3457 3.3457 3.34375 3.34375 3.34375 3.34375 3.34375 3.34375 3.34375 3.34375 3.34375 3.34375 3.34375 3.34375 3.34375 3.34375 3.34375 3.34375 3.34375 3.3457 3.3457 3.3457 3.3457 3.3457 3.34766 3.34766 3.34766 3.34766 3.34961 3.34961 3.34961 3.35156 3.35156 3.35156 3.35352 3.35352 3.35352 3.35547 3.35547 3.35742 3.35742 3.35938 3.35938 3.36133 3.36328 3.36328 3.36523 3.36523 3.36719 3.36914 3.36914 3.37109 3.37305 3.37305 3.375 3.37695 3.37891 3.37891 3.38086 3.38281 3.38477 3.38672 3.38867 3.38867 3.39063 3.39258 3.39453 3.39648 3.39844 3.40039 3.40234 3.4043 3.40625 3.4082 3.41016 3.41406 3.41602 3.41797 3.41992 3.42188 3.42383 3.42773 3.42969 3.43164 3.43359 3.4375 3.43945 3.44141 3.44336 3.44727 3.44922 3.45313 3.45508 3.45703 3.46094 3.46289 3.4668 3.46875 3.47266 3.47461 3.47852 3.48047 3.48438 3.48828 3.49023 3.49414 3.49609 3.5 3.50391 3.50586 3.50977 3.51367 3.51758 3.51953 3.52344 3.52734 3.53125 3.53516 3.53906 3.54102 3.54492 3.54883 3.55273 3.55664 3.56055 3.56445 3.56836 3.57227 3.54883 3.51953 3.49219 3.46484 3.4375 3.41016 3.38477 3.35938 3.33398 3.30859 3.28516 3.26172 3.24414 3.24805 3.25195 3.27148 3.29688 26.1563 26.1719 26.2031 26.2188 6.22266 6.22266 6.23047 6.23828 6.25 26.375 26.3906 26.4219 26.4375 26.4688 26.5 6.3125 6.30859 6.31641 6.32422 6.33203 6.34375 6.35156 6.35938 26.7344 26.7656 26.7969 3.13086 3.13086 3.12891 3.12695 3.08594 3.08594 3.08398 3.08398 3.08203 3.08203 3.08008 3.08008 3.07813 3.07813 3.07813 3.07617 3.07617 3.07422 3.07422 3.07422 3.07227 3.07227 3.07227 3.07031 3.07031 3.07031 3.06836 3.06836 3.06836 3.06836 3.06641 3.06641 3.06641 3.06641 3.06445 3.06445 3.06445 3.06445 3.06445 3.0625 3.0625 3.0625 3.0625 3.0625 3.0625 3.0625 3.0625 3.0625 3.0625 3.06055 3.06055 3.06055 3.06055 3.06055 3.06055 3.06055 3.06055 3.06055 3.06055 3.06055 3.06055 3.06055 3.0625 3.0625 3.0625 3.0625 3.0625 3.0625 3.0625 3.0625 3.0625 3.0625 3.06445 3.06445 3.06445 3.06445 3.06445 3.06445 3.06641 3.06641 3.06641 3.06641 3.06641 3.06836 3.06836 3.06836 3.06836 3.06836 3.07031 3.07031 3.07031 3.07227 3.07227 3.07227 3.07227 3.07422 3.07422 3.07422 3.07617 3.07617 3.07617 3.07813 3.07813 3.07813 3.08008 3.08008 3.08008 3.08203 3.08203 3.08203 3.08398 3.08594 3.08984 3.09375 3.09961 3.10352 3.10742 3.11328 3.11719 3.12109 3.12695 3.13086 3.13281 3.13477 3.13477 3.13672 3.13672 3.13867 3.13867 3.14063 3.14063
3.51172 3.50781 3.50586 3.50195 3.5 3.49609 3.49414 3.49023 3.48828 3.48633 3.48242 3.48047 3.47852 3.47461 3.47266 3.4707 3.4668 3.46484 3.46289 3.46094 3.45703 3.45508 3.45313 3.45117 3.44727 3.44531 3.44336 3.44141 3.43945 3.4375 3.43359 3.43164 3.42969 3.42773 3.42578 3.42383 3.42188 3.41992 3.41797 3.41602 3.41406 3.41211 3.41016 3.4082 3.40625 3.4043 3.40234 3.40039 3.39844 3.39844 3.39648 3.39453 3.39258 3.39063 3.38867 3.38867 3.38672 3.38477 3.38281 3.38281 3.38086 3.37891 3.37695 3.37695 3.375 3.37305 3.37305 3.37109 3.37109 3.36914 3.36719 3.36719 3.36523 3.36523 3.36328 3.36328 3.36133 3.36133 3.35938 3.35938 3.35938 3.35742 3.35742 3.35547 3.35547 3.35547 3.35352 3.35352 3.35352 3.35156 3.35156 3.35156 3.35156 3.35156 3.34961 3.34961 3.34961 3.34961 3.34961 3.34961 3.34766 3.34766 3.34766 3.34766 3.34766 3.34766 3.34766 3.34766 3.34766 3.34766 3.34766 3.34766 3.34766 3.34961 3.34961 3.34961 3.34961 3.34961 3.34961 3.35156 3.35156 3.35156 3.35156 3.35352 3.35352 3.35352 3.35352 3.35547 3.35547 3.35742 3.35742 3.35742 3.35938 3.35938 3.36133 3.36133 3.36328 3.36328 3.36523 3.36523 3.36719 3.36719 3.36914 3.37109 3.37109 3.37305 3.375 3.375 3.37695 3.37891 3.37891 3.38086 3.38281 3.38477 3.38672 3.38672 3.38867 3.39063 3.39258 3.39453 3.39648 3.39844 3.40039 3.40234 3.4043 3.40625 3.4082 3.41016 3.41211 3.41406 3.41602 3.41797 3.41992 3.42188 3.42383 3.42578 3.42969 3.43164 3.43359 3.43555 3.43945 3.44141 3.44336 3.44727 3.44922 3.45117 3.45508 3.45703 3.45898 3.46289 3.46484 3.46875 3.4707 3.47461 3.47656 3.48047 3.48242 3.48633 3.48828 3.49219 3.49609 3.49805 3.50195 3.50586 3.50781 3.51172 3.51563 3.51758 3.52148 3.52539 3.5293 3.53125 3.53516 3.53906 3.54297 3.54688 3.55078 3.55469 3.55859 3.5625 3.56641 3.57031 3.57422 3.57813 3.55078 3.52148 3.49414 3.4668 3.43945 3.41211 3.38672 3.35938 3.33594 3.31055 3.28516 3.26172 3.24805 3.25195 3.25586 3.27734 3.30469 25.9688 6.21484 6.21094 6.21875 6.22656 6.23438 26.1094 26.125 26.1563 26.1719 26.2031 26.2344 26.25 26.2813 26.2969 6.31641 6.31641 6.32422 6.33203 6.34375 6.35156 6.35938 6.36719 26.5469 26.5625 26.5938 3.13477 3.13281 3.13281 3.0918 3.08984 3.08984 3.08789 3.08789 3.08594 3.08594 3.08398 3.08398 3.08203 3.08203 3.08008 3.08008 3.07813 3.07813 3.07813 3.07617 3.07617 3.07617 3.07422 3.07422 3.07422 3.07227 3.07227 3.07227 3.07031 3.07031 3.07031 3.07031 3.06836 3.06836 3.06836 3.06836 3.06836 3.06641 3.06641 3.06641 3.06641 3.06641 3.06641 3.06641 3.06445 3.06445 3.06445 3.06445 3.06445 3.06445 3.06445 3.06445 3.06445 3.06445 3.06445 3.06445 3.06445 3.06445 3.06445 3.06445 3.06445 3.06445 3.06445 3.06445 3.06445 3.06445 3.06445 3.06641 3.06641 3.06641 3.06641 3.06641 3.06641 3.06641 3.06641 3.06836 3.06836 3.06836 3.06836 3.06836 3.06836 3.07031 3.07031 3.07031 3.07031 3.07227 3.07227 3.07227 3.07227 3.07422 3.07422 3.07422 3.07422 3.07617 3.07617 3.07617 3.07813 3.07813 3.07813 3.07813 3.08008 3.08008 3.08008 3.08203 3.08203 3.08203 3.08398 3.08398 3.08594 3.08594 3.08594 3.08789 3.08789 3.08984 3.08984 3.08984 3.0918 3.0918 3.09375 3.09961 3.10352 3.10938 3.11328 3.11719 3.12305 3.12695 3.13086 3.13672 3.14063 3.14258 3.14453
3.51563 3.51172 3.50977 3.50586 3.50391 3.50195 3.49805 3.49609 3.49219 3.49023 3.48828 3.48438 3.48242 3.48047 3.47656 3.47461 3.47266 3.46875 3.4668 3.46484 3.46289 3.45898 3.45703 3.45508 3.45313 3.44922 3.44727 3.44531 3.44336 3.44141 3.43945 3.4375 3.43359 3.43164 3.42969 3.42773 3.42578 3.42383 3.42188 3.41992 3.41797 3.41602 3.41406 3.41211 3.41016 3.4082 3.40625 3.40625 3.4043 3.40234 3.40039 3.39844 3.39648 3.39453 3.39453 3.39258 3.39063 3.38867 3.38867 3.38672 3.38477 3.38281 3.38281 3.38086 3.37891 3.37891 3.37695 3.375 3.375 3.37305 3.37305 3.37109 3.37109 3.36914 3.36914 3.36719 3.36719 3.36523 3.36523 3.36328 3.36328 3.36133 3.36133 3.36133 3.35938 3.35938 3.35938 3.35742 3.35742 3.35742 3.35547 3.35547 3.35547 3.35547 3.35547 3.35352 3.35352 3.35352 3.35352 3.35352 3.35352 3.35352 3.35352 3.35352 3.35156 3.35156 3.35156 3.35156 3.35156 3.35352 3.35352 3.35352 3.35352 3.35352 3.35352 3.35352 3.35352 3.35352 3.35547 3.35547 3.35547 3.35547 3.35742 3.35742 3.35742 3.35742 3.35938 3.35938 3.35938 3.36133 3.36133 3.36328 3.36328 3.36523 3.36523 3.36523 3.36719 3.36719 3.36914 3.37109 3.37109 3.37305 3.37305 3.375 3.37695 3.37695 3.37891 3.38086 3.38086 3.38281 3.38477 3.38477 3.38672 3.38867 3.39063 3.39258 3.39453 3.39453 3.39648 3.39844 3.40039 3.40234 3.4043 3.40625 3.4082 3.41016 3.41211 3.41406 3.41602 3.41797 3.41992 3.42188 3.42383 3.42773 3.42969 3.43164 3.43359 3.43555 3.43945 3.44141 3.44336 3.44531 3.44922 3.45117 3.45313 3.45703 3.45898 3.46094 3.46484 3.4668 3.4707 3.47266 3.47656 3.47852 3.48242 3.48438 3.48828 3.49023 3.49414 3.49609 3.5 3.50391 3.50586 3.50977 3.51367 3.51563 3.51953 3.52344 3.52734 3.5293 3.5332 3.53711 3.54102 3.54492 3.54883 3.55078 3.55469 3.55859 3.5625 3.56641 3.57031 3.57422 3.57813 3.58008 3.55273 3.52344 3.49414 3.4668 3.43945 3.41406 3.38672 3.36133 3.33594 3.31055 3.28711 3.26367 3.25195 3.25586 3.26172 3.28516 3.3125 6.20313 6.21094 6.21875 25.8438 25.875 25.8906 25.9219 25.9375 25.9688 25.9844 26.0156 26.0313 26.0625 26.0938 26.1094 6.31641 6.32422 6.33203 6.34375 6.35156 6.35938 6.36719 26.3281 26.3438 26.375 26.4063 3.13867 3.13672 3.13672 3.09375 3.09375 3.0918 3.0918 3.08984 3.08984 3.08789 3.08789 3.08594 3.08594 3.08398 3.08398 3.08398 3.08203 3.08203 3.08008 3.08008 3.08008 3.07813 3.07813 3.07813 3.07617 3.07617 3.07617 3.07422 3.07422 3.07422 3.07422 3.07227 3.07227 3.07227 3.07227 3.07031 3.07031 3.07031 3.07031 3.07031 3.07031 3.06836 3.06836 3.06836 3.06836 3.06836 3.06836 3.06836 3.06836 3.06836 3.06836 3.06836 3.06836 3.06836 3.06836 3.06836 3.06836 3.06836 3.06836 3.06836 3.06836 3.06836 3.06836 3.06836 3.06836 3.06836 3.06836 3.06836 3.06836 3.06836 3.06836 3.07031 3.07031 3.07031 3.07031 3.07031 3.07031 3.07031 3.07227 3.07227 3.07227 3.07227 3.07227 3.07422 3.07422 3.07422 3.07422 3.07617 3.07617 3.07617 3.07617 3.07813 3.07813 3.07813 3.07813 3.08008 3.08008 3.08008 3.08203 3.08203 3.08203 3.08398 3.08398 3.08398 3.08594 3.08594 3.08594 3.08789 3.08789 3.08789 3.08984 3.08984 3.0918 3.0918 3.0918 3.09375 3.09375 3.0957 3.0957 3.09766 3.09766 3.09766 3.09961 3.09961 3.10156 3.10547 3.10938 3.11328 3.11914 3.12305 3.12891
3.51953 3.51758 3.51367 3.51172 3.50781 3.50586 3.50391 3.5 3.49805 3.49414 3.49219 3.49023 3.48633 3.48438 3.48242 3.47852 3.47656 3.47461 3.4707 3.46875 3.4668 3.46484 3.46094 3.45898 3.45703 3.45508 3.45313 3.44922 3.44727 3.44531 3.44336 3.44141 3.43945 3.4375 3.43555 3.43359 3.42969 3.42773 3.42578 3.42383 3.42188 3.41992 3.41797 3.41797 3.41602 3.41406 3.41211 3.41016 3.4082 3.40625 3.4043 3.40234 3.40234 3.40039 3.39844 3.39648 3.39453 3.39453 3.39258 3.39063 3.38867 3.38867 3.38672 3.38477 3.38477 3.38281 3.38086 3.38086 3.37891 3.37891 3.37695 3.375 3.375 3.37305 3.37305 3.37109 3.37109 3.36914 3.36914 3.36914 3.36719 3.36719 3.36523 3.36523 3.36523 3.36328 3.36328 3.36328 3.36133 3.36133 3.36133 3.36133 3.35938 3.35938 3.35938 3.35938 3.35938 3.35742 3.35742 3.35742 3.35742 3.35742 3.35742 3.35742 3.35742 3.35742 3.35742 3.35742 3.35742 3.35742 3.35742 3.35742 3.35742 3.35742 3.35742 3.35742 3.35938 3.35938 3.35938 3.35938 3.35938 3.36133 3.36133 3.36133 3.36133 3.36328 3.36328 3.36328 3.36523 3.36523 3.36719 3.36719 3.36719 3.36914 3.36914 3.37109 3.37109 3.37305 3.37305 3.375 3.375 3.37695 3.37891 3.37891 3.38086 3.38281 3.38281 3.38477 3.38672 3.38672 3.38867 3.39063 3.39258 3.39258 3.39453 3.39648 3.39844 3.40039 3.40234 3.4043 3.4043 3.40625 3.4082 3.41016 3.41211 3.41406 3.41602 3.41797 3.41992 3.42188 3.42578 3.42773 3.42969 3.43164 3.43359 3.43555 3.4375 3.44141 3.44336 3.44531 3.44727 3.45117 3.45313 3.45508 3.45898 3.46094 3.46289 3.4668 3.46875 3.47266 3.47461 3.47852 3.48047 3.48438 3.48633 3.49023 3.49219 3.49609 3.49805 3.50195 3.50586 3.50781 3.51172 3.51367 3.51758 3.52148 3.52539 3.52734 3.53125 3.53516 3.53906 3.54102 3.54492 3.54883 3.55273 3.55664 3.56055 3.56445 3.56836 3.57227 3.57617 3.58008 3.58398 3.58203 3.55273 3.52539 3.49609 3.46875 3.44141 3.41406 3.38867 3.36328 3.33789 3.3125 3.28906 3.26367 3.25781 3.26172 3.26758 3.29297 3.31836 6.21094 25.6094 25.6406 25.6563 25.6875 25.7031 25.7344 25.75 25.7813 25.7969 25.8281 25.8438 25.875 25.9063 25.9219 6.32422 6.33594 6.34375 6.35156 6.35938 6.36719 6.37891 26.125 26.1563 26.1875 3.14258 3.14258 3.14063 3.13867 3.09766 3.09766 3.0957 3.0957 3.09375 3.09375 3.0918 3.0918 3.08984 3.08984 3.08789 3.08789 3.08594 3.08594 3.08398 3.08398 3.08398 3.08203 3.08203 3.08203 3.08008 3.08008 3.08008 3.07813 3.07813 3.07813 3.07813 3.07617 3.07617 3.07617 3.07617 3.07422 3.07422 3.07422 3.07422 3.07422 3.07227 3.07227 3.07227 3.07227 3.07227 3.07227 3.07227 3.07227 3.07031 3.07031 3.07031 3.07031 3.07031 3.07031 3.07031 3.07031 3.07031 3.07031 3.07031 3.07031 3.07031 3.07031 3.07031 3.07031 3.07031 3.07031 3.07227 3.07227 3.07227 3.07227 3.07227 3.07227 3.07227 3.07227 3.07227 3.07422 3.07422 3.07422 3.07422 3.07422 3.07422 3.07617 3.07617 3.07617 3.07617 3.07617 3.07813 3.07813 3.07813 3.07813 3.08008 3.08008 3.08008 3.08008 3.08203 3.08203 3.08203 3.08398 3.08398 3.08398 3.08594 3.08594 3.08594 3.08594 3.08789 3.08789 3.08984 3.08984 3.08984 3.0918 3.0918 3.0918 3.09375 3.09375 3.0957 3.0957 3.0957 3.09766 3.09766 3.09961 3.09961 3.10156 3.10156 3.10156 3.10352 3.10352 3.10547 3.10547 3.10742 3.10742 3.10938 3.10938
3.52539 3.52148 3.51953 3.51563 3.51367 3.50977 3.50781 3.50391 3.50195 3.5 3.49609 3.49414 3.49219 3.48828 3.48633 3.48438 3.48047 3.47852 3.47656 3.47266 3.4707 3.46875 3.4668 3.46289 3.46094 3.45898 3.45703 3.45508 3.45313 3.44922 3.44727 3.44531 3.44336 3.44141 3.43945 3.4375 3.43555 3.43359 3.43164 3.42969 3.42773 3.42578 3.42383 3.42188 3.41992 3.41797 3.41602 3.41406 3.41211 3.41016 3.41016 3.4082 3.40625 3.4043 3.40234 3.40039 3.40039 3.39844 3.39648 3.39453 3.39453 3.39258 3.39063 3.39063 3.38867 3.38672 3.38672 3.38477 3.38281 3.38281 3.38086 3.38086 3.37891 3.37891 3.37695 3.37695 3.375 3.375 3.37305 3.37305 3.37109 3.37109 3.37109 3.36914 3.36914 3.36914 3.36719 3.36719 3.36719 3.36523 3.36523 3.36523 3.36523 3.36328 3.36328 3.36328 3.36328 3.36328 3.36328 3.36133 3.36133 3.36133 3.36133 3.36133 3.36133 3.36133 3.36133 3.36133 3.36133 3.36133 3.36133 3.36133 3.36133 3.36133 3.36328 3.36328 3.36328 3.36328 3.36328 3.36328 3.36523 3.36523 3.36523 3.36523 3.36719 3.36719 3.36719 3.36914 3.36914 3.37109 3.37109 3.37109 3.37305 3.37305 3.375 3.375 3.37695 3.37695 3.37891 3.37891 3.38086 3.38086 3.38281 3.38477 3.38477 3.38672 3.38867 3.38867 3.39063 3.39258 3.39258 3.39453 3.39648 3.39844 3.40039 3.40039 3.40234 3.4043 3.40625 3.4082 3.41016 3.41211 3.41406 3.41602 3.41797 3.41992 3.42188 3.42383 3.42578 3.42773 3.42969 3.43164 3.43359 3.43555 3.43945 3.44141 3.44336 3.44531 3.44727 3.45117 3.45313 3.45508 3.45703 3.46094 3.46289 3.4668 3.46875 3.4707 3.47461 3.47656 3.48047 3.48242 3.48633 3.48828 3.49219 3.49414 3.49805 3.5 3.50391 3.50586 3.50977 3.51367 3.51563 3.51953 3.52344 3.52539 3.5293 3.5332 3.53711 3.53906 3.54297 3.54688 3.55078 3.55469 3.55859 3.56055 3.56445 3.56836 3.57227 3.57617 3.58008 3.58398 3.58789 3.58398 3.55469 3.52539 3.49805 3.4707 3.44336 3.41602 3.39063 3.36328 3.33789 3.31445 3.28906 3.26563 3.26172 3.26563 3.27344 3.30078 25.3906 25.4063 25.4375 25.4531 25.4844 25.5 25.5313 25.5469 25.5781 25.5938 25.625 25.6406 25.6719 25.6875 25.7188 6.35938 6.33594 6.34375 6.35156 6.35938 6.36719 6.37891 6.38672 25.9531 25.9688 26 3.14648 3.14453 3.14453 3.14258 3.10156 3.09961 3.09961 3.09766 3.09766 3.0957 3.0957 3.09375 3.09375 3.0918 3.0918 3.08984 3.08984 3.08984 3.08789 3.08789 3.08594 3.08594 3.08594 3.08398 3.08398 3.08398 3.08203 3.08203 3.08203 3.08008 3.08008 3.08008 3.08008 3.07813 3.07813 3.07813 3.07813 3.07813 3.07617 3.07617 3.07617 3.07617 3.07617 3.07617 3.07617 3.07422 3.07422 3.07422 3.07422 3.07422 3.07422 3.07422 3.07422 3.07422 3.07422 3.07422 3.07422 3.07422 3.07422 3.07422 3.07422 3.07422 3.07422 3.07422 3.07422 3.07422 3.07422 3.07422 3.07422 3.07422 3.07422 3.07617 3.07617 3.07617 3.07617 3.07617 3.07617 3.07617 3.07813 3.07813 3.07813 3.07813 3.07813 3.08008 3.08008 3.08008 3.08008 3.08008 3.08203 3.08203 3.08203 3.08203 3.08398 3.08398 3.08398 3.08594 3.08594 3.08594 3.08594 3.08789 3.08789 3.08789 3.08984 3.08984 3.08984 3.0918 3.0918 3.0918 3.09375 3.09375 3.0957 3.0957 3.0957 3.09766 3.09766 3.09766 3.09961 3.09961 3.10156 3.10156 3.10352 3.10352 3.10352 3.10547 3.10547 3.10742 3.10742 3.10938 3.10938 3.11133 3.11133 3.11328
